# .PCD v0.7 - Point Cloud Data file format
VERSION 0.7
FIELDS x y z rgb
SIZE 4 4 4 4
TYPE F F F F
COUNT 1 1 1 1
WIDTH 1025
HEIGHT 1
VIEWPOINT 0 0 0 1 0 0 0
POINTS 1025
DATA ascii
0.89500588 -1.4558874 0.77470011 7.9230172e-39
0.90517992 -1.4550685 0.77470011 8.01521e-39
0.91191912 -1.455478 0.77470011 8.0152086e-39
0.10574768 -1.4440871 0.77469873 7.7393476e-39
0.11456323 -1.4440871 0.77469873 7.8311845e-39
0.12484802 -1.4440873 0.77469873 7.8315446e-39
0.13513283 -1.4440871 0.77469873 7.8311831e-39
0.14476009 -1.4436828 0.77469873 7.8315446e-39
0.1548907 -1.4444914 0.77469873 7.8315474e-39
0.16451795 -1.444087 0.77469873 7.739349e-39
0.17480277 -1.444087 0.77469873 7.739349e-39
0.18508755 -1.444087 0.77469879 7.739349e-39
0.19470394 -1.4436826 0.77469879 7.6467904e-39
0.20485632 -1.4444913 0.77469879 7.7389861e-39
0.2144727 -1.4440869 0.77469879 7.8315446e-39
0.22475749 -1.4440868 0.77469879 7.831546e-39
0.23504229 -1.4440869 0.77469891 7.8315488e-39
0.24464777 -1.4436824 0.77469885 7.8319104e-39
0.25482193 -1.4444911 0.77469885 7.8322677e-39
0.26521286 -1.4436824 0.77469885 7.7397133e-39
0.27539602 -1.4444913 0.77469891 7.7393504e-39
0.28499699 -1.4440869 0.77469897 7.831546e-39
0.29459161 -1.4436823 0.77469891 7.8319076e-39
0.30478749 -1.444491 0.77469909 7.7397105e-39
0.3151567 -1.4436821 0.77469891 7.7393518e-39
0.32536158 -1.444491 0.77469903 7.7397105e-39
0.33495173 -1.4440866 0.77469903 7.7397119e-39
0.34453544 -1.4436821 0.77469909 7.6475163e-39
0.35475311 -1.444491 0.77469915 7.6471562e-39
0.36510053 -1.4436821 0.77469915 7.7397119e-39
0.37532717 -1.444491 0.77469915 7.8322705e-39
0.38490641 -1.4440866 0.77469915 7.7397133e-39
0.39447922 -1.443682 0.77469921 7.6475163e-39
0.40471867 -1.4444908 0.77469921 7.8319062e-39
0.41504431 -1.443682 0.77469921 7.9241018e-39
0.42529273 -1.4444907 0.77469921 7.831909e-39
0.43486106 -1.4440862 0.77469921 7.8311845e-39
0.44442302 -1.4436818 0.77469921 7.8311831e-39
0.45468426 -1.4444907 0.77469927 7.8311831e-39
0.46498808 -1.4436818 0.77469927 7.7386273e-39
0.47525832 -1.4444904 0.77469927 7.646789e-39
0.48555321 -1.4436817 0.77469927 7.7389875e-39
0.49509826 -1.4440861 0.77469927 7.8311817e-39
0.50464976 -1.4444904 0.77469933 7.9237389e-39
0.51493186 -1.4436817 0.77469933 7.9241004e-39
0.52522385 -1.4444903 0.77469933 7.9237389e-39
0.53549701 -1.4436816 0.77469933 7.831546e-39
0.54505301 -1.444086 0.77469945 7.8319062e-39
0.55461538 -1.4444903 0.77469951 7.8308216e-39
0.56487572 -1.4436817 0.77469951 7.9230158e-39
0.57518941 -1.4444903 0.77469957 7.8311831e-39
0.58544075 -1.4436815 0.77469957 7.8315446e-39
0.5950076 -1.444086 0.77469951 7.9233815e-39
0.60458088 -1.4444902 0.77469963 7.9233815e-39
0.61481947 -1.4436814 0.77469963 7.831546e-39
0.62515497 -1.4444902 0.77469963 7.8315446e-39
0.6353845 -1.4436811 0.77469963 7.831546e-39
0.64496231 -1.4440856 0.77469963 7.831909e-39
0.65454638 -1.4444901 0.77469969 7.8319048e-39
0.66476327 -1.4436811 0.77469969 7.8311831e-39
0.67512047 -1.4444901 0.77469969 7.8311817e-39
0.6853283 -1.4436811 0.77469969 7.831546e-39
0.6949169 -1.4440856 0.77469969 7.8319062e-39
0.70451194 -1.4444898 0.77469969 7.8311845e-39
0.7147069 -1.4436811 0.77469975 7.9233773e-39
0.72508603 -1.4444897 0.77469975 8.0159387e-39
0.73527199 -1.443681 0.77469975 8.0159373e-39
0.74487144 -1.4440855 0.77469975 8.1074084e-39
0.75515628 -1.4440854 0.77469975 8.1070469e-39
0.76544112 -1.4440855 0.77469975 7.9233759e-39
0.77505153 -1.4444897 0.77469981 7.9230172e-39
0.7852158 -1.443681 0.77469987 7.8311803e-39
0.79482609 -1.4440852 0.77469987 8.0152114e-39
0.80511093 -1.4440852 0.77469981 8.0152086e-39
0.81539565 -1.4440852 0.77469993 8.1070427e-39
0.82501698 -1.4444895 0.77469987 8.1070413e-39
0.83515948 -1.4436808 0.77469987 8.0148471e-39
0.84478068 -1.444085 0.77469999 8.0152086e-39
0.85506546 -1.4440851 0.77470005 8.0152086e-39
0.86535025 -1.444085 0.77470011 7.9226514e-39
0.87498242 -1.4444895 0.77470011 7.8304586e-39
0.88510317 -1.4436806 0.77470011 7.8308202e-39
0.89473534 -1.444085 0.77470011 7.9233759e-39
0.90502006 -1.4440849 0.77470011 7.9230158e-39
0.91236639 -1.444085 0.77470005 7.923013e-39
0.1052398 -1.4328324 0.77469856 7.8311803e-39
0.11546222 -1.4328322 0.77469867 7.8311831e-39
0.12568466 -1.4328322 0.77469867 7.831546e-39
0.13444674 -1.4328322 0.77469867 7.7393476e-39
0.14466915 -1.4328322 0.77469873 7.739349e-39
0.1548916 -1.4328321 0.77469873 7.8319048e-39
0.16511402 -1.4328322 0.77469873 7.8311845e-39
0.17533644 -1.4328322 0.77469873 7.7397077e-39
0.18489663 -1.4324328 0.77469873 7.8311845e-39
0.1949832 -1.4332316 0.77469873 7.7389875e-39
0.2045434 -1.4328321 0.77469873 7.7389861e-39
0.2147658 -1.4328321 0.77469879 7.8311831e-39
0.22498822 -1.4328321 0.77469879 7.8315432e-39
0.23521066 -1.4328321 0.77469879 7.8319062e-39
0.24543308 -1.4328319 0.77469891 7.8319076e-39
0.25497806 -1.4324324 0.77469891 7.9237431e-39
0.265095 -1.4332315 0.77469891 7.8315446e-39
0.27463996 -1.4328319 0.77469891 7.6471534e-39
0.28486243 -1.4328318 0.77469897 7.7393504e-39
0.29508483 -1.4328318 0.77469897 7.9237417e-39
0.30461907 -1.4324322 0.77469891 7.8311845e-39
0.3147575 -1.4332314 0.77469909 7.8315446e-39
0.3250595 -1.4324322 0.77469903 7.8319076e-39
0.33520675 -1.4332314 0.77469909 7.8319076e-39
0.34473658 -1.4328318 0.77469903 7.8315474e-39
0.35495901 -1.4328315 0.77469909 7.739349e-39
0.36518145 -1.4328318 0.77469915 7.7393476e-39
0.37470049 -1.4324321 0.77469915 7.8315474e-39
0.38486931 -1.4332311 0.77469915 7.7397119e-39
0.39514089 -1.4324319 0.77469915 7.7393504e-39
0.40531853 -1.4332311 0.77469915 7.8315446e-39
0.41483319 -1.4328314 0.77469915 7.8319062e-39
0.42434147 -1.4324319 0.77469921 7.8319062e-39
0.43453175 -1.433231 0.77469921 7.8308216e-39
0.44478184 -1.4324319 0.77469921 7.9230172e-39
0.45498103 -1.433231 0.77469921 7.9233787e-39
0.46522233 -1.4324318 0.77469921 7.8311845e-39
0.47543028 -1.433231 0.77469921 7.7389875e-39
0.48492971 -1.4328313 0.77469927 7.8311831e-39
0.49442285 -1.4324318 0.77469927 7.7393504e-39
0.50464356 -1.4332308 0.77469927 7.8319048e-39
0.51486325 -1.4324318 0.77469927 7.9241018e-39
0.52509278 -1.4332308 0.77469927 7.9241004e-39
0.53530365 -1.4324318 0.77469933 7.9237389e-39
0.54554206 -1.4332306 0.77469933 8.0155744e-39
0.55502629 -1.4328312 0.77469939 7.8311803e-39
0.56450421 -1.4324316 0.77469933 7.9230158e-39
0.57475519 -1.4332305 0.77469951 7.8311817e-39
0.58494461 -1.4324315 0.77469951 7.8311789e-39
0.59520447 -1.4332305 0.77469951 7.9230172e-39
0.60538495 -1.4324313 0.77469957 7.8311817e-39
0.61489815 -1.4328308 0.77469951 7.739349e-39
0.62441766 -1.4332303 0.77469957 7.6471506e-39
0.63458556 -1.4324313 0.77469963 7.739349e-39
0.64486694 -1.4332304 0.77469957 7.9237431e-39
0.65502596 -1.4324313 0.77469963 7.831546e-39
0.66531616 -1.4332303 0.77469963 7.8311831e-39
0.67546636 -1.4324312 0.77469963 7.8311845e-39
0.6849947 -1.4328308 0.77469969 7.9233815e-39
0.69452935 -1.4332302 0.77469969 7.9241018e-39
0.70466691 -1.4324311 0.77469969 7.831546e-39
0.71497864 -1.43323 0.77469975 7.8315446e-39
0.72510725 -1.432431 0.77469969 7.9241032e-39
0.73464638 -1.4328305 0.77469975 8.0155786e-39
0.74486876 -1.4328305 0.77469975 8.015573e-39
0.75509119 -1.4328305 0.77469975 8.1074084e-39
0.76464093 -1.43323 0.77469981 7.9230172e-39
0.77474821 -1.432431 0.77469981 7.8308188e-39
0.78509033 -1.43323 0.77469975 7.9226543e-39
0.79518849 -1.4324309 0.77469981 8.1070441e-39
0.80474281 -1.4328305 0.77469987 8.1066826e-39
0.81496525 -1.4328303 0.77469981 8.1070413e-39
0.82518762 -1.4328303 0.77469987 7.9226528e-39
0.83475268 -1.4332298 0.77469987 7.9226543e-39
0.84482944 -1.4324309 0.77469999 8.0152114e-39
0.8543945 -1.4328303 0.77469993 7.9230144e-39
0.86461687 -1.4328302 0.77470005 7.8304572e-39
0.87483925 -1.4328302 0.77469999 7.8308188e-39
0.88506168 -1.4328302 0.77470005 7.9230172e-39
0.895284 -1.4328302 0.77469999 7.8311817e-39
0.90486425 -1.4332296 0.77470011 7.7389875e-39
0.91187268 -1.4318978 0.77469999 7.7389861e-39
0.10486272 -1.4244763 0.77469856 7.8311817e-39
0.11503884 -1.4244763 0.77469862 7.8315418e-39
0.12521496 -1.4244761 0.77469867 7.8315446e-39
0.13539109 -1.4244761 0.77469867 7.8311831e-39
0.14556721 -1.4244761 0.77469867 7.8315446e-39
0.15428959 -1.4244761 0.77469867 7.8322691e-39
0.1644657 -1.4244761 0.77469873 7.9233829e-39
0.17464183 -1.424476 0.77469873 7.831546e-39
0.18481794 -1.4244759 0.77469873 7.8311845e-39
0.19499408 -1.424476 0.77469873 7.8315432e-39
0.20517018 -1.424476 0.77469873 7.8311817e-39
0.21534629 -1.424476 0.77469879 7.8308216e-39
0.22552241 -1.4244759 0.77469879 7.8315432e-39
0.23569854 -1.4244758 0.77469891 7.8315446e-39
0.24442093 -1.4244758 0.77469879 7.831546e-39
0.25459704 -1.4244758 0.77469885 7.9237403e-39
0.26477316 -1.4244758 0.77469891 7.8311845e-39
0.27494928 -1.4244757 0.77469891 7.647152e-39
0.28512537 -1.4244757 0.77469891 7.7397091e-39
0.2953015 -1.4244757 0.77469891 7.9241004e-39
0.30547762 -1.4244757 0.77469897 7.831546e-39
0.31419998 -1.4244756 0.77469897 7.8311845e-39
0.32437611 -1.4244756 0.77469897 7.7393476e-39
0.3345522 -1.4244756 0.77469897 7.7393476e-39
0.34472832 -1.4244754 0.77469897 7.8315474e-39
0.35490444 -1.4244753 0.77469897 7.831546e-39
0.36508057 -1.4244754 0.77469903 7.7389889e-39
0.37525666 -1.4244753 0.77469903 7.8311859e-39
0.38543278 -1.4244753 0.77469909 7.7393504e-39
0.3956089 -1.4244753 0.77469903 7.7389903e-39
0.4043313 -1.4244753 0.77469903 7.8315446e-39
0.41450736 -1.4244753 0.77469921 7.9233801e-39
0.42468345 -1.4244753 0.77469921 7.8311831e-39
0.4348596 -1.4244753 0.77469921 7.8308202e-39
0.4450357 -1.4244752 0.77469921 7.9237389e-39
0.45521182 -1.4244752 0.77469921 8.0159359e-39
0.46538791 -1.4244752 0.77469927 7.9237403e-39
0.475564 -1.4244752 0.77469927 7.8315432e-39
0.4857401 -1.4244751 0.77469939 7.8315432e-39
0.49446249 -1.4244751 0.77469939 7.8315432e-39
0.50463855 -1.4244751 0.77469933 7.9233801e-39
0.51481467 -1.4244751 0.77469939 8.0155772e-39
0.52499086 -1.4244751 0.77469933 8.0155758e-39
0.53516692 -1.4244751 0.77469939 7.9233773e-39
0.54534304 -1.424475 0.77469939 7.9230172e-39
0.5555191 -1.4244748 0.77469945 7.8308202e-39
0.56424147 -1.4244748 0.77469945 7.8308202e-39
0.57441759 -1.4244748 0.77469945 7.9230172e-39
0.58459371 -1.4244747 0.77469945 7.8308188e-39
0.59476978 -1.4244747 0.77469951 7.9226571e-39
0.6049459 -1.4244747 0.77469951 7.9230172e-39
0.61512202 -1.4244747 0.77469951 7.8311831e-39
0.62529808 -1.4244747 0.77469951 7.8311831e-39
0.63547421 -1.4244746 0.77469957 7.8315446e-39
0.64565033 -1.4244746 0.77469951 7.9237431e-39
0.65437263 -1.4244746 0.77469963 7.8319048e-39
0.66454875 -1.4244746 0.77469957 7.8319034e-39
0.67472488 -1.4244744 0.77469963 7.8319062e-39
0.68490094 -1.4244745 0.77469963 7.9241018e-39
0.69507712 -1.4244744 0.77469969 7.9241046e-39
0.70525318 -1.4244745 0.77469969 7.8315446e-39
0.71542925 -1.4244744 0.77469969 7.8315446e-39
0.72560537 -1.4244745 0.77469969 7.9241018e-39
0.73578149 -1.4244744 0.77469969 7.9233815e-39
0.7445038 -1.4244744 0.77469975 8.0152128e-39
0.75467992 -1.4244744 0.77469981 8.1070483e-39
0.76485604 -1.4244744 0.77469975 8.0152114e-39
0.7750321 -1.4244742 0.77469981 7.9230158e-39
0.78520823 -1.4244742 0.77469987 8.0152114e-39
0.79538429 -1.4244742 0.77469987 8.1992411e-39
0.80556041 -1.4244742 0.77469987 8.1066826e-39
0.81428272 -1.4244742 0.77469987 8.1066812e-39
0.8244589 -1.4244741 0.77469993 7.9226514e-39
0.83463496 -1.4244741 0.77469993 7.9226543e-39
0.84481102 -1.4244741 0.77469993 7.9230144e-39
0.85498714 -1.4244741 0.77469993 7.9230144e-39
0.86516327 -1.424474 0.77469993 7.9230144e-39
0.87533933 -1.4244741 0.77469993 8.0155715e-39
0.88551533 -1.4244739 0.77469999 7.9233773e-39
0.89569139 -1.4244739 0.77469999 7.8311817e-39
0.90441388 -1.4244739 0.77469999 7.8311817e-39
0.91168249 -1.4244738 0.77470005 7.8311817e-39
0.10448942 -1.4162036 0.77469856 7.9237403e-39
0.1146197 -1.4162036 0.77469862 7.9237403e-39
0.12474998 -1.4162036 0.77469867 7.9241032e-39
0.13488024 -1.4162035 0.77469862 7.8315446e-39
0.14501053 -1.4162035 0.77469867 7.8315446e-39
0.15514079 -1.4162035 0.77469867 7.9237431e-39
0.16527109 -1.4162035 0.77469873 7.8315432e-39
0.17540136 -1.4162035 0.77469873 7.739349e-39
0.18553163 -1.4162035 0.77469873 7.8311831e-39
0.19500348 -1.4158112 0.77469873 7.8315446e-39
0.20500341 -1.4165957 0.77469873 7.8311831e-39
0.21525967 -1.4158112 0.77469873 7.8311845e-39
0.22526833 -1.4165956 0.77469879 7.8315446e-39
0.2347358 -1.4162034 0.77469873 7.7389889e-39
0.24486607 -1.4162033 0.77469879 7.8315446e-39
0.25499636 -1.4162031 0.77469891 7.9233801e-39
0.26512665 -1.4162033 0.77469879 7.8311845e-39
0.2752569 -1.4162031 0.77469891 7.6467918e-39
0.28470945 -1.4158107 0.77469879 7.8311859e-39
0.29474792 -1.4165956 0.77469885 7.9237417e-39
0.30496565 -1.4158108 0.77469891 7.9237403e-39
0.31501284 -1.4165953 0.77469891 7.7393462e-39
0.32522187 -1.4158107 0.77469891 7.7389889e-39
0.33527771 -1.4165953 0.77469891 7.7393504e-39
0.34472159 -1.416203 0.77469897 7.8315474e-39
0.35485187 -1.4162029 0.77469909 7.7393518e-39
0.36498213 -1.416203 0.77469903 7.739349e-39
0.37511241 -1.416203 0.77469909 7.7393504e-39
0.3852427 -1.4162029 0.77469903 7.8315474e-39
0.39467165 -1.4158105 0.77469915 7.739349e-39
0.40475729 -1.4165952 0.77469915 7.9230214e-39
0.41492787 -1.4158105 0.77469915 7.9233801e-39
0.42502218 -1.4165952 0.77469915 7.8315432e-39
0.43518397 -1.4158103 0.77469921 7.830823e-39
0.44528708 -1.4165951 0.77469915 8.0155758e-39
0.45544022 -1.4158102 0.77469921 8.0159345e-39
0.46555191 -1.4165949 0.77469921 7.8315432e-39
0.47496784 -1.4162025 0.77469921 7.7393448e-39
0.48437756 -1.4158102 0.77469921 7.8311817e-39
0.49450174 -1.4165949 0.77469921 7.8311845e-39
0.50463378 -1.4158102 0.77469927 7.831546e-39
0.51476663 -1.4165947 0.77469927 7.9237431e-39
0.52488995 -1.41581 0.77469927 7.9237417e-39
0.5350315 -1.4165947 0.77469927 7.9233787e-39
0.54514611 -1.4158102 0.77469927 7.9230158e-39
0.55529636 -1.4165946 0.77469939 7.9230158e-39
0.56540233 -1.41581 0.77469933 7.9226557e-39
0.57482111 -1.4162024 0.77469945 7.8311803e-39
0.58495134 -1.4162024 0.77469945 7.8308202e-39
0.59508163 -1.4162022 0.77469945 7.8308202e-39
0.60451108 -1.4165946 0.77469951 7.9230172e-39
0.61459583 -1.4158099 0.77469951 7.8315432e-39
0.62477589 -1.4165946 0.77469957 7.8315446e-39
0.63485199 -1.4158098 0.77469957 7.8311845e-39
0.64504081 -1.4165946 0.77469963 7.8319048e-39
0.65510809 -1.4158098 0.77469957 7.8319062e-39
0.66530555 -1.4165944 0.77469963 7.8319076e-39
0.67536432 -1.4158098 0.77469963 7.8319076e-39
0.68480676 -1.4162021 0.77469963 7.9237431e-39
0.69493699 -1.4162019 0.77469963 7.9241032e-39
0.70506722 -1.4162021 0.77469969 7.8319048e-39
0.71519756 -1.4162018 0.77469969 7.831546e-39
0.72532779 -1.4162019 0.77469969 7.9244633e-39
0.73478514 -1.4165944 0.77469969 8.0159373e-39
0.74481404 -1.4158096 0.77469969 8.015573e-39
0.75504988 -1.4165941 0.77469975 8.0155715e-39
0.76507014 -1.4158094 0.77469975 8.0152114e-39
0.77453184 -1.4162017 0.77469975 7.9230144e-39
0.78466201 -1.4162018 0.77469975 7.9230158e-39
0.79479235 -1.4162017 0.77469975 8.0152114e-39
0.80492258 -1.4162017 0.77469981 7.9230144e-39
0.81505281 -1.4162017 0.77469975 7.923013e-39
0.82518303 -1.4162016 0.77469981 8.0148485e-39
0.83531338 -1.4162016 0.77469987 8.0152114e-39
0.84544361 -1.4162016 0.77469981 7.8311803e-39
0.85557383 -1.4162016 0.77469993 7.8311803e-39
0.8650592 -1.4165939 0.77469987 7.9233773e-39
0.87503207 -1.4158093 0.77469999 8.0155744e-39
0.88451743 -1.4162016 0.77469993 7.9237375e-39
0.89464766 -1.4162016 0.77469999 7.8311817e-39
0.90477782 -1.4162015 0.77469999 7.6467904e-39
0.91201377 -1.4162016 0.77469999 7.6467904e-39
0.10543517 -1.4052835 0.77469856 7.9241004e-39
0.11550492 -1.4052835 0.77469856 7.9241018e-39
0.12493516 -1.4048958 0.77469862 7.8322705e-39
0.13484547 -1.4056711 0.77469867 7.8315446e-39
0.1450704 -1.4048958 0.77469867 7.8311831e-39
0.15498927 -1.405671 0.77469867 7.8319048e-39
0.1652056 -1.4048957 0.77469867 7.8315446e-39
0.17513309 -1.405671 0.77469867 7.7389875e-39
0.18455471 -1.4052833 0.77469873 7.7393476e-39
0.19462445 -1.4052833 0.77469873 7.831546e-39
0.20469421 -1.4052833 0.77469873 7.8311845e-39
0.21476398 -1.4052832 0.77469873 7.8319076e-39
0.22483374 -1.4052833 0.77469873 7.9237431e-39
0.23490348 -1.4052833 0.77469879 7.8311845e-39
0.24497326 -1.4052831 0.77469873 7.9237417e-39
0.255043 -1.4052832 0.77469879 7.9237417e-39
0.26511279 -1.4052831 0.77469879 7.8311845e-39
0.27518249 -1.405283 0.77469879 7.6467932e-39
0.28525224 -1.405283 0.77469879 7.7397105e-39
0.29464626 -1.4048952 0.77469879 7.831546e-39
0.304629 -1.4056708 0.77469879 7.9233787e-39
0.31478146 -1.4048952 0.77469885 7.8311817e-39
0.32477278 -1.4056704 0.77469891 7.739349e-39
0.33491665 -1.4048951 0.77469891 7.8319076e-39
0.34491658 -1.4056704 0.77469891 7.8322677e-39
0.35505193 -1.4048951 0.77469891 7.8319104e-39
0.36506036 -1.4056704 0.77469903 7.7397119e-39
0.37518707 -1.4048949 0.77469909 7.7400707e-39
0.38520417 -1.4056703 0.77469909 7.831909e-39
0.39532232 -1.4048949 0.77469909 7.739349e-39
0.40534797 -1.4056703 0.77469909 7.8311831e-39
0.41545752 -1.4048949 0.77469915 7.8315446e-39
0.42549175 -1.4056703 0.77469915 7.8315446e-39
0.43559271 -1.4048949 0.77469915 7.8311831e-39
0.44563556 -1.4056703 0.77469915 8.015573e-39
0.45499945 -1.4052825 0.77469921 8.0159331e-39
0.46435723 -1.4048948 0.77469921 7.9237389e-39
0.47441241 -1.4056702 0.77469921 7.8311817e-39
0.48449245 -1.4048948 0.77469921 7.8311817e-39
0.49455619 -1.4056702 0.77469921 7.8315446e-39
0.50462765 -1.4048948 0.77469921 7.9237445e-39
0.51469994 -1.40567 0.77469927 7.9241046e-39
0.52476281 -1.4048948 0.77469927 8.0159401e-39
0.53484374 -1.40567 0.77469927 8.0155772e-39
0.54489803 -1.4048947 0.77469927 7.9233759e-39
0.55498755 -1.40567 0.77469933 8.0152086e-39
0.56503326 -1.4048946 0.77469933 7.8311803e-39
0.5751313 -1.4056699 0.77469933 7.7389833e-39
0.58516836 -1.4048946 0.77469933 7.8311803e-39
0.59527504 -1.4056698 0.77469951 7.8311803e-39
0.60530365 -1.4048945 0.77469951 7.9233787e-39
0.61541891 -1.4056696 0.77469951 7.8315446e-39
0.62543875 -1.4048945 0.77469951 7.8315474e-39
0.6348142 -1.405282 0.77469951 7.831546e-39
0.64488393 -1.4052818 0.77469957 7.8315432e-39
0.65495366 -1.4052819 0.77469951 7.8319076e-39
0.66502339 -1.4052818 0.77469963 7.8322705e-39
0.67509311 -1.4052819 0.77469963 7.8322705e-39
0.68516284 -1.4052818 0.77469963 7.9241032e-39
0.69523263 -1.4052817 0.77469963 8.0163002e-39
0.70462704 -1.4056693 0.77469963 7.8319076e-39
0.71460885 -1.404894 0.77469969 7.8311845e-39
0.72477084 -1.4056693 0.77469969 7.9241018e-39
0.73474407 -1.404894 0.77469969 7.9241004e-39
0.74491453 -1.4056693 0.77469969 8.015573e-39
0.75487912 -1.404894 0.77469969 8.0159359e-39
0.76505834 -1.4056692 0.77469969 8.0155758e-39
0.7750144 -1.4048939 0.77469975 7.9230158e-39
0.78520209 -1.4056692 0.77469975 7.7386217e-39
0.79514951 -1.4048939 0.77469975 7.9230144e-39
0.80456108 -1.4052815 0.77469987 8.0152114e-39
0.81463087 -1.4052815 0.77469975 8.0152114e-39
0.82470059 -1.4052814 0.77469987 7.9230172e-39
0.83477026 -1.4052814 0.77469981 7.9230158e-39
0.84484005 -1.4052814 0.77469987 7.8308202e-39
0.85490984 -1.4052815 0.77469981 7.8311817e-39
0.86497951 -1.4052814 0.77469987 7.9237389e-39
0.87504923 -1.4052813 0.77469993 7.9237375e-39
0.88511896 -1.4052812 0.77469999 7.9233759e-39
0.89518863 -1.4052813 0.77469999 7.7389833e-39
0.90525842 -1.4052812 0.77469993 7.6464303e-39
0.91245115 -1.4052812 0.77469999 7.646789e-39
0.10493971 -1.394493 0.7746985 7.9237403e-39
0.11494967 -1.394493 0.77469856 7.9237431e-39
0.12495963 -1.3944931 0.77469856 7.8319076e-39
0.13496958 -1.394493 0.77469856 7.8315446e-39
0.14497957 -1.394493 0.77469862 7.8311817e-39
0.15498951 -1.3944927 0.77469856 7.8311831e-39
0.16499949 -1.3944929 0.77469862 7.7393476e-39
0.17500943 -1.3944927 0.77469867 7.8311831e-39
0.18501939 -1.3944927 0.77469867 7.7389889e-39
0.19502936 -1.3944927 0.77469873 7.9237417e-39
0.20503929 -1.3944927 0.77469873 7.92302e-39
0.21504927 -1.3944926 0.77469873 7.8311831e-39
0.22505921 -1.3944926 0.77469873 7.8315446e-39
0.23506917 -1.3944925 0.77469873 7.8315446e-39
0.24507913 -1.3944926 0.77469873 7.9237417e-39
0.25508907 -1.3944925 0.77469873 7.8315474e-39
0.26509908 -1.3944926 0.77469873 7.7389889e-39
0.27510902 -1.3944925 0.77469873 7.7389903e-39
0.28511894 -1.3944924 0.77469879 7.8315474e-39
0.29512891 -1.3944925 0.77469879 7.831909e-39
0.30513889 -1.3944924 0.77469885 7.831546e-39
0.31514883 -1.3944925 0.77469879 7.8315432e-39
0.32515877 -1.3944923 0.77469885 7.8311831e-39
0.33516875 -1.3944925 0.77469879 7.831546e-39
0.34517869 -1.3944924 0.77469897 7.8322705e-39
0.35518861 -1.3944921 0.77469897 7.832632e-39
0.36451206 -1.3941091 0.77469891 7.831909e-39
0.37446505 -1.3948753 0.77469903 7.8315474e-39
0.38452771 -1.394109 0.77469909 7.831909e-39
0.39448923 -1.3948753 0.77469915 7.7397105e-39
0.40454334 -1.394109 0.77469915 7.7393476e-39
0.41451338 -1.3948753 0.77469915 7.831546e-39
0.42455897 -1.394109 0.77469915 7.9237403e-39
0.43453756 -1.3948752 0.77469915 7.8315418e-39
0.44457468 -1.394109 0.77469915 7.9233773e-39
0.45456168 -1.3948749 0.77469921 8.015573e-39
0.46459031 -1.3941089 0.77469921 8.015573e-39
0.4745858 -1.3948749 0.77469921 7.9233773e-39
0.48460597 -1.3941087 0.77469921 8.0152142e-39
0.49460998 -1.3948749 0.77469921 8.0152142e-39
0.50462162 -1.3941088 0.77469921 8.0155758e-39
0.51463407 -1.3948749 0.77469921 7.9241032e-39
0.52463728 -1.3941088 0.77469921 7.9244661e-39
0.53465825 -1.3948747 0.77469927 8.0159373e-39
0.54465294 -1.3941087 0.77469927 7.9230172e-39
0.55468237 -1.3948748 0.77469927 7.9230158e-39
0.56466854 -1.3941085 0.77469927 7.9230172e-39
0.57470649 -1.3948747 0.77469927 7.8311803e-39
0.58468419 -1.3941087 0.77469933 7.9233773e-39
0.59473068 -1.3948746 0.77469933 7.9233773e-39
0.60469979 -1.3941087 0.77469933 8.0155772e-39
0.6147548 -1.3948747 0.77469933 7.9237431e-39
0.62471545 -1.3941085 0.77469933 7.831546e-39
0.63477886 -1.3948747 0.77469939 7.831546e-39
0.6447311 -1.3941084 0.77469951 7.7393476e-39
0.65480298 -1.3948746 0.77469951 7.8319076e-39
0.66474676 -1.3941084 0.77469951 7.9241074e-39
0.67482716 -1.3948746 0.77469951 7.9244675e-39
0.68476236 -1.3941082 0.77469957 7.924106e-39
0.69485128 -1.3948745 0.77469957 7.9244675e-39
0.70477808 -1.3941084 0.77469957 7.8322677e-39
0.71487534 -1.3948745 0.77469963 7.831546e-39
0.72479373 -1.3941082 0.77469963 7.9244661e-39
0.73489946 -1.3948743 0.77469969 8.0159359e-39
0.74480927 -1.3941081 0.77469969 8.0152128e-39
0.75492352 -1.3948743 0.77469969 8.015573e-39
0.76482493 -1.3941081 0.77469969 7.9237389e-39
0.7749477 -1.3948742 0.77469969 7.8311803e-39
0.78484046 -1.3941081 0.77469969 7.8308202e-39
0.79497188 -1.3948743 0.77469975 7.8308202e-39
0.80485612 -1.3941079 0.77469975 7.8311789e-39
0.81499606 -1.3948742 0.77469975 8.0148485e-39
0.82487166 -1.3941078 0.77469975 8.0152114e-39
0.83502007 -1.394874 0.77469975 7.9230158e-39
0.84488732 -1.3941078 0.77469975 7.8308202e-39
0.85504419 -1.394874 0.77469981 7.8311817e-39
0.86490303 -1.3941078 0.77469981 7.92302e-39
0.87506837 -1.394874 0.77469981 7.9233787e-39
0.88491863 -1.3941078 0.77469987 7.8308216e-39
0.89509243 -1.3948739 0.77469987 7.7386245e-39
0.90493423 -1.3941078 0.77469987 7.6464289e-39
0.9123714 -1.3953847 0.77469993 7.7386245e-39
0.10445009 -1.3838298 0.7746985 7.831546e-39
0.11519258 -1.3834512 0.77469856 7.8319076e-39
0.12498172 -1.3842084 0.77469856 7.8322677e-39
0.13509013 -1.3834512 0.77469856 7.8311845e-39
0.14488767 -1.3842083 0.77469862 7.8311817e-39
0.15498768 -1.3834512 0.77469862 7.830823e-39
0.16479361 -1.3842081 0.77469862 7.8308244e-39
0.1748852 -1.3834512 0.77469867 7.8311845e-39
0.18469954 -1.384208 0.77469867 7.8315432e-39
0.19542944 -1.3838296 0.77469867 7.8311831e-39
0.20538032 -1.3838295 0.77469867 7.8311831e-39
0.2153312 -1.3838296 0.77469867 7.8311831e-39
0.22528206 -1.3838295 0.77469873 7.8322663e-39
0.23523292 -1.3838295 0.77469873 7.9237417e-39
0.24518378 -1.3838295 0.77469873 7.9241032e-39
0.25513464 -1.3838294 0.77469873 7.924106e-39
0.26508555 -1.3838295 0.77469873 7.739349e-39
0.27503639 -1.3838294 0.77469879 7.7393518e-39
0.28498724 -1.3838295 0.77469879 7.831909e-39
0.29493809 -1.3838292 0.77469879 7.7400749e-39
0.30488893 -1.3838292 0.77469891 7.739349e-39
0.31483981 -1.3838294 0.77469879 7.8315446e-39
0.32479069 -1.3838292 0.77469879 7.8315446e-39
0.33474156 -1.3838291 0.77469885 7.8315474e-39
0.34543553 -1.3834505 0.77469891 7.8319104e-39
0.35532174 -1.3842077 0.77469891 7.831909e-39
0.36533302 -1.3834506 0.77469891 7.6471534e-39
0.37522766 -1.3842077 0.77469891 7.6471534e-39
0.38523054 -1.3834505 0.77469903 7.8319076e-39
0.39513355 -1.3842076 0.77469909 7.831909e-39
0.40512803 -1.3834504 0.77469909 7.8311845e-39
0.41503948 -1.3842077 0.77469903 7.8319062e-39
0.42502555 -1.3834504 0.77469909 7.9237403e-39
0.43494537 -1.3842075 0.77469909 7.9233787e-39
0.4449231 -1.3834504 0.77469915 8.0159331e-39
0.4548513 -1.3842076 0.77469915 8.0159331e-39
0.46482059 -1.3834503 0.77469915 7.9233787e-39
0.47475719 -1.3842074 0.77469915 7.8308202e-39
0.48471811 -1.3834503 0.77469921 8.0152128e-39
0.49466309 -1.3842074 0.77469915 8.0155744e-39
0.50461566 -1.3834503 0.77469921 7.9241018e-39
0.51456898 -1.3842074 0.77469921 8.0159401e-39
0.52451313 -1.3834502 0.77469921 8.0163016e-39
0.53447491 -1.3842071 0.77469921 7.9241018e-39
0.54441065 -1.3834499 0.77469927 7.9233801e-39
0.55507988 -1.3838286 0.77469921 7.9230172e-39
0.56503069 -1.3838288 0.77469927 7.9233773e-39
0.57498157 -1.3838286 0.77469927 7.9233759e-39
0.58493239 -1.3838285 0.77469927 7.8315404e-39
0.59488326 -1.3838285 0.77469927 8.0155758e-39
0.60556746 -1.384207 0.77469933 8.0159359e-39
0.61547321 -1.3834499 0.77469933 7.9241018e-39
0.62547338 -1.384207 0.77469933 7.831546e-39
0.63537073 -1.3834498 0.77469951 7.7393504e-39
0.64537919 -1.384207 0.77469951 7.6467918e-39
0.65526813 -1.3834498 0.77469951 7.7389889e-39
0.66528511 -1.3842068 0.77469951 7.924106e-39
0.67516565 -1.3834498 0.77469957 7.924106e-39
0.68519098 -1.3842068 0.77469957 7.9237417e-39
0.69506311 -1.3834496 0.77469963 7.9241032e-39
0.70509684 -1.3842069 0.77469963 7.8319076e-39
0.71496063 -1.3834497 0.77469963 7.8311845e-39
0.72500277 -1.3842068 0.77469963 7.9237431e-39
0.73485816 -1.3834497 0.77469963 8.0155758e-39
0.74490863 -1.3842068 0.77469963 8.015573e-39
0.75475562 -1.3834496 0.77469969 8.015573e-39
0.76481456 -1.3842067 0.77469969 7.9233773e-39
0.77465314 -1.3834494 0.77469969 7.8311789e-39
0.78537089 -1.3838279 0.77469969 7.8308188e-39
0.7953217 -1.3838278 0.77469969 7.8308202e-39
0.80527252 -1.3838279 0.77469969 7.923013e-39
0.8152234 -1.3838278 0.77469969 8.0148485e-39
0.82517427 -1.3838279 0.77469975 8.0148499e-39
0.83512515 -1.3838278 0.77469975 7.9230158e-39
0.84507591 -1.3838278 0.77469975 8.0155715e-39
0.85502678 -1.3838278 0.77469975 7.9233773e-39
0.8649776 -1.3838278 0.77469981 7.9230186e-39
0.87492847 -1.3838278 0.77469975 7.830823e-39
0.88487923 -1.3838278 0.77469981 7.7386231e-39
0.89483005 -1.3838278 0.77469987 7.7386245e-39
0.90478098 -1.3838276 0.77469981 7.7386259e-39
0.91188872 -1.3838276 0.77469993 7.7386245e-39
0.10537942 -1.373292 0.7746985 7.8315446e-39
0.1152719 -1.373292 0.7746985 7.831546e-39
0.12516436 -1.3732919 0.7746985 7.9237417e-39
0.13505684 -1.373292 0.7746985 7.9237375e-39
0.1449493 -1.3732919 0.7746985 7.9233773e-39
0.15484177 -1.3732917 0.77469862 7.8315432e-39
0.16473424 -1.3732916 0.77469856 7.7393462e-39
0.17462671 -1.3732917 0.77469867 7.8311817e-39
0.1852915 -1.3729174 0.77469867 7.7389861e-39
0.19505255 -1.3736657 0.77469867 7.8311803e-39
0.20507227 -1.3729174 0.77469867 7.9230158e-39
0.21484163 -1.3736658 0.77469867 7.9233773e-39
0.22485307 -1.3729174 0.77469873 7.9241018e-39
0.23463072 -1.3736658 0.77469873 7.9237417e-39
0.24528721 -1.3732915 0.77469873 7.9237445e-39
0.25517964 -1.3732915 0.77469873 7.8322691e-39
0.26507211 -1.3732914 0.77469873 7.8311873e-39
0.27496457 -1.3732914 0.77469873 7.8322691e-39
0.28485703 -1.3732914 0.77469873 7.9241046e-39
0.2954987 -1.3729172 0.77469873 7.831546e-39
0.30530602 -1.3736656 0.77469873 7.7389875e-39
0.31527948 -1.3729172 0.77469879 7.8311859e-39
0.32509509 -1.3736655 0.77469879 7.8311831e-39
0.3350603 -1.3729172 0.77469879 7.830823e-39
0.34488416 -1.3736655 0.77469879 7.8315446e-39
0.35484105 -1.3729172 0.77469885 7.8315474e-39
0.3646732 -1.3736652 0.77469885 7.7393504e-39
0.37462184 -1.3729169 0.77469891 7.7389889e-39
0.3844623 -1.3736652 0.77469891 7.8319062e-39
0.39508736 -1.3732911 0.77469891 7.8319062e-39
0.4049798 -1.373291 0.77469897 7.8311831e-39
0.41487223 -1.373291 0.77469897 7.8319062e-39
0.42548665 -1.3729169 0.77469909 7.9237431e-39
0.43534845 -1.3736651 0.77469909 7.9233787e-39
0.44526744 -1.3729169 0.77469909 8.1074084e-39
0.45513752 -1.3736651 0.77469915 8.1074084e-39
0.46504822 -1.3729168 0.77469915 7.9230172e-39
0.47492653 -1.373665 0.77469915 7.8308188e-39
0.48482901 -1.3729166 0.77469915 7.9233759e-39
0.49471566 -1.3736649 0.77469915 7.9237375e-39
0.5046097 -1.3729166 0.77469915 7.9237389e-39
0.51450473 -1.3736649 0.77469915 8.1077728e-39
0.52439058 -1.3729166 0.77469921 8.0166604e-39
0.53499287 -1.3732907 0.77469921 7.9244661e-39
0.54560179 -1.3736647 0.77469921 7.9237431e-39
0.55547458 -1.3729165 0.77469921 7.9230186e-39
0.56539077 -1.3736647 0.77469927 7.923013e-39
0.57525533 -1.3729165 0.77469927 7.923013e-39
0.58517992 -1.3736647 0.77469927 7.9230172e-39
0.59503609 -1.3729165 0.77469927 7.9237403e-39
0.60496897 -1.3736649 0.77469927 8.015573e-39
0.61481678 -1.3729165 0.77469927 7.8315432e-39
0.62475795 -1.3736646 0.77469933 7.8315432e-39
0.6345976 -1.3729163 0.77469927 7.8319062e-39
0.64522308 -1.3732904 0.77469933 7.8311845e-39
0.65511554 -1.3732904 0.77469939 7.7393476e-39
0.66500801 -1.3732904 0.77469939 7.8322691e-39
0.67490047 -1.3732904 0.77469945 7.9244647e-39
0.68479282 -1.3732903 0.77469945 7.9237389e-39
0.6954332 -1.3736646 0.77469951 8.0159373e-39
0.70524317 -1.3729162 0.77469951 7.9241032e-39
0.71522218 -1.3736645 0.77469957 7.831546e-39
0.72502387 -1.3729161 0.77469957 7.8319076e-39
0.73501122 -1.3736643 0.77469963 7.9233801e-39
0.74480468 -1.3729161 0.77469963 8.0152128e-39
0.75480026 -1.3736643 0.77469963 8.1074084e-39
0.76458538 -1.372916 0.77469963 8.1074084e-39
0.7752381 -1.3732899 0.77469969 8.0148499e-39
0.7851305 -1.3732899 0.77469969 8.0148471e-39
0.79502302 -1.3732899 0.77469969 7.9226528e-39
0.80491537 -1.3732899 0.77469969 8.0148457e-39
0.81480789 -1.3732899 0.77469969 8.01521e-39
0.82470036 -1.3732899 0.77469969 7.9226528e-39
0.8345927 -1.3732898 0.77469975 7.9230158e-39
0.84526443 -1.373664 0.77469975 8.0152128e-39
0.85501152 -1.3729156 0.77469975 7.9233759e-39
0.86505347 -1.373664 0.77469975 7.8311803e-39
0.8747924 -1.3729156 0.77469981 7.7386231e-39
0.88546818 -1.3732898 0.77469975 7.7386245e-39
0.89536053 -1.3732897 0.77469987 7.8311831e-39
0.90525299 -1.3732898 0.77469981 7.8311831e-39
0.91231906 -1.3732897 0.77469987 7.8311831e-39
0.10489294 -1.362877 0.77469844 7.830823e-39
0.1147277 -1.3628768 0.77469838 7.8311831e-39
0.12456245 -1.3628768 0.77469844 7.9237417e-39
0.13439722 -1.3628769 0.77469838 7.9233801e-39
0.14500816 -1.362507 0.77469856 7.9233759e-39
0.1546955 -1.3632467 0.77469856 7.9233773e-39
0.16530643 -1.3628768 0.7746985 7.7389847e-39
0.17514117 -1.3628768 0.7746985 7.7386245e-39
0.18497594 -1.3628767 0.77469856 7.8308202e-39
0.19481069 -1.3628765 0.77469856 7.9230158e-39
0.20464544 -1.3628767 0.77469862 7.8311817e-39
0.21524175 -1.3625069 0.77469862 7.9237389e-39
0.22495833 -1.3632462 0.77469867 7.9241032e-39
0.23490715 -1.3625067 0.77469867 7.9241046e-39
0.24463193 -1.3632463 0.77469867 7.9244647e-39
0.25522414 -1.3628765 0.77469867 7.8319076e-39
0.2650589 -1.3628763 0.77469873 7.8311845e-39
0.27489364 -1.3628765 0.77469873 7.831909e-39
0.28547534 -1.3625066 0.77469873 7.8322677e-39
0.29522118 -1.3632462 0.77469873 7.8319062e-39
0.3051407 -1.3625066 0.77469873 7.7393476e-39
0.31489477 -1.3632462 0.77469873 7.8308244e-39
0.32480606 -1.3625066 0.77469879 7.8311831e-39
0.33456835 -1.3632461 0.77469879 7.7389861e-39
0.34514183 -1.3628762 0.77469879 7.739349e-39
0.35497656 -1.3628763 0.77469879 7.7397105e-39
0.36481133 -1.3628762 0.77469885 7.7397105e-39
0.37537423 -1.3625065 0.77469885 7.739349e-39
0.38515759 -1.3632458 0.77469891 7.831546e-39
0.39503962 -1.3625063 0.77469885 7.831546e-39
0.4048312 -1.3632458 0.77469891 7.8311831e-39
0.41470501 -1.3625063 0.77469891 7.8319062e-39
0.42450476 -1.3632458 0.77469891 7.8322691e-39
0.43505949 -1.3628761 0.77469897 7.8315474e-39
0.44560781 -1.3625062 0.77469909 7.9237431e-39
0.4554204 -1.3632456 0.77469909 7.9237389e-39
0.46527314 -1.3625062 0.77469909 7.9226571e-39
0.47509399 -1.3632456 0.77469915 7.9222913e-39
0.48493853 -1.362506 0.77469915 7.9226528e-39
0.49476752 -1.3632456 0.77469915 8.0152114e-39
0.50460392 -1.3625059 0.77469921 7.9237389e-39
0.51444113 -1.3632454 0.77469915 8.0159373e-39
0.52497709 -1.3628757 0.77469921 8.0162974e-39
0.53550667 -1.3625058 0.77469921 8.0159373e-39
0.54535675 -1.3632454 0.77469921 7.9237417e-39
0.55517203 -1.3625059 0.77469921 7.9233759e-39
0.56503028 -1.3632452 0.77469921 7.923013e-39
0.57483739 -1.3625058 0.77469921 7.9230144e-39
0.58470386 -1.3632454 0.77469921 7.9230186e-39
0.59450281 -1.3625057 0.77469927 7.9233801e-39
0.6050579 -1.3628755 0.77469927 8.015573e-39
0.61561948 -1.3632452 0.77469933 7.8315432e-39
0.62540549 -1.3625057 0.77469927 7.831546e-39
0.63529307 -1.3632452 0.77469939 7.8322719e-39
0.64507091 -1.3625057 0.77469933 7.8322691e-39
0.65496665 -1.3632451 0.77469939 7.8311845e-39
0.66473627 -1.3625057 0.77469951 7.9241032e-39
0.67530596 -1.3628752 0.77469945 7.9241046e-39
0.68514067 -1.3628753 0.77469945 7.9233787e-39
0.6949755 -1.3628752 0.77469945 8.0159345e-39
0.7048102 -1.3628753 0.77469951 7.9237403e-39
0.71464497 -1.3628752 0.77469957 7.9233787e-39
0.72522932 -1.363245 0.77469957 7.9241018e-39
0.73496968 -1.3625053 0.77469957 7.8315418e-39
0.74490291 -1.363245 0.77469957 8.0155701e-39
0.75463504 -1.3625056 0.77469957 8.1077672e-39
0.7652235 -1.3628752 0.77469963 8.107407e-39
0.77505827 -1.3628751 0.77469963 8.0144883e-39
0.78489298 -1.3628751 0.77469963 7.9226514e-39
0.79472774 -1.3628751 0.77469963 7.9226514e-39
0.80456245 -1.362875 0.77469963 8.0144855e-39
0.81516558 -1.3632447 0.77469969 8.0148471e-39
0.8248685 -1.3625053 0.77469969 7.9226528e-39
0.83547157 -1.3628749 0.77469969 7.9230172e-39
0.84530634 -1.3628749 0.77469969 7.9230144e-39
0.85514104 -1.3628749 0.77469969 7.8308188e-39
0.86497575 -1.3628749 0.77469969 7.7386217e-39
0.87481046 -1.3628747 0.77469975 7.7386245e-39
0.88464516 -1.3628749 0.77469975 7.8308216e-39
0.89447987 -1.362875 0.77469981 7.8315418e-39
0.90510178 -1.3632444 0.77469987 7.9233801e-39
0.91184431 -1.3620119 0.77469987 7.9230186e-39
0.10519207 -1.3522174 0.77469832 7.7389847e-39
0.1148067 -1.3529482 0.77469838 7.8311845e-39
0.12536435 -1.3525828 0.77469838 7.831546e-39
0.13514204 -1.3525826 0.7746985 7.9233787e-39
0.14491977 -1.3525827 0.77469838 7.9230158e-39
0.15469746 -1.3525826 0.7746985 8.0152086e-39
0.16447517 -1.3525827 0.7746985 7.8308202e-39
0.17501833 -1.352217 0.77469856 7.7386231e-39
0.1846619 -1.3529481 0.77469862 7.8304572e-39
0.19520509 -1.3525826 0.77469862 7.9226514e-39
0.2049828 -1.3525825 0.77469856 7.7386259e-39
0.2147605 -1.3525822 0.77469867 7.831546e-39
0.22529326 -1.352217 0.77469862 7.9241046e-39
0.23495765 -1.352948 0.77469862 7.9241046e-39
0.24484463 -1.3522167 0.77469867 7.9244661e-39
0.25451711 -1.3529478 0.77469867 7.8319076e-39
0.26504582 -1.3525822 0.77469873 7.7389875e-39
0.27482352 -1.3525823 0.77469873 7.8319062e-39
0.28460121 -1.3525822 0.77469873 7.8319062e-39
0.29511952 -1.3522166 0.77469873 7.8319062e-39
0.30481285 -1.3529476 0.77469873 7.739349e-39
0.31533113 -1.3525821 0.77469873 7.7386273e-39
0.3251088 -1.352582 0.77469879 7.8311831e-39
0.33488655 -1.352582 0.77469879 7.7386245e-39
0.3453944 -1.3522165 0.77469879 7.646789e-39
0.35510853 -1.3529475 0.77469879 7.7393476e-39
0.36494574 -1.3522165 0.77469885 7.8315446e-39
0.37466797 -1.3529475 0.77469885 7.8315446e-39
0.3851718 -1.352582 0.77469885 7.9233815e-39
0.39566925 -1.3522165 0.77469891 7.8315474e-39
0.40540427 -1.3529475 0.77469891 7.8311831e-39
0.41522065 -1.3522165 0.77469891 7.8319076e-39
0.42496374 -1.3529475 0.77469891 7.8322719e-39
0.43477196 -1.3522164 0.77469909 7.8319076e-39
0.44452313 -1.3529472 0.77469903 8.0159373e-39
0.4550125 -1.3525819 0.77469909 7.9237389e-39
0.46549553 -1.3522164 0.77469903 7.8308202e-39
0.47525936 -1.3529472 0.77469909 7.9222899e-39
0.4850468 -1.3522161 0.77469909 8.106684e-39
0.49481887 -1.3529472 0.77469909 8.0152114e-39
0.50459814 -1.3522161 0.77469909 7.9233773e-39
0.51507342 -1.3525817 0.77469915 8.0159373e-39
0.52555507 -1.3529471 0.77469915 8.1081329e-39
0.53532165 -1.3522161 0.77469921 8.1081329e-39
0.54511458 -1.3529471 0.77469921 8.0155758e-39
0.55487305 -1.3522159 0.77469921 8.0148527e-39
0.56467396 -1.3529471 0.77469921 7.8304586e-39
0.57442433 -1.3522159 0.77469921 8.0148499e-39
0.58491409 -1.3525815 0.77469921 7.9233801e-39
0.59541023 -1.3529469 0.77469921 7.9237389e-39
0.60514784 -1.3522159 0.77469921 8.0152114e-39
0.61496967 -1.3529469 0.77469921 7.9233801e-39
0.62469918 -1.3522159 0.77469927 7.9237431e-39
0.63519931 -1.3525813 0.77469927 7.8326334e-39
0.64497703 -1.3525814 0.77469927 7.8326334e-39
0.65475464 -1.352581 0.77469933 7.8315446e-39
0.66526526 -1.3529465 0.77469933 7.8319076e-39
0.67497402 -1.3522156 0.77469933 7.9241032e-39
0.68482476 -1.3529466 0.77469933 7.9230158e-39
0.6945253 -1.3522156 0.77469939 8.0152142e-39
0.70503992 -1.352581 0.77469945 8.0155758e-39
0.71481758 -1.352581 0.77469945 8.0152156e-39
0.72459525 -1.352581 0.77469945 7.9241032e-39
0.73512036 -1.3529466 0.77469951 7.9230158e-39
0.74480009 -1.3522156 0.77469951 8.1074028e-39
0.75532514 -1.3525809 0.77469957 8.1996041e-39
0.76510286 -1.352581 0.77469951 8.1074056e-39
0.77488053 -1.3525809 0.77469957 8.106321e-39
0.78541601 -1.3529463 0.77469957 8.1066826e-39
0.79507488 -1.3522152 0.77469963 8.0148457e-39
0.80497545 -1.3529464 0.77469963 8.1070427e-39
0.81462616 -1.3522152 0.77469969 8.0144869e-39
0.82516581 -1.3525808 0.77469969 7.9230144e-39
0.83494335 -1.3525807 0.77469969 7.9230158e-39
0.84472108 -1.3525808 0.77469969 7.9226571e-39
0.85527092 -1.3529463 0.77469969 7.8308216e-39
0.86490107 -1.3522154 0.77469969 7.8311803e-39
0.87545085 -1.3525808 0.77469975 7.9230158e-39
0.88522863 -1.3525807 0.77469975 7.9226571e-39
0.89500624 -1.3525807 0.77469975 7.9233773e-39
0.90478396 -1.3525805 0.77469975 8.0155744e-39
0.91176796 -1.3525805 0.77469981 7.9233773e-39
0.1054198 -1.3438679 0.7737413 5.8039722e-39
0.11515211 -1.3438677 0.7737413 5.8043352e-39
0.12488442 -1.3438678 0.77374136 5.8043338e-39
0.13461673 -1.3438678 0.7737413 5.8043324e-39
0.14434904 -1.3438678 0.77374136 5.804331e-39
0.15547165 -1.3438677 0.77374136 5.8961665e-39
0.16520397 -1.3438677 0.77374142 5.8039722e-39
0.17493628 -1.3438675 0.77374136 5.8039708e-39
0.18466859 -1.3438677 0.77374142 5.8961665e-39
0.19440088 -1.3438677 0.77374142 5.8958049e-39
0.20552352 -1.3438673 0.77374148 5.8043324e-39
0.21525584 -1.3438674 0.77374148 5.896528e-39
0.22498813 -1.3438673 0.77374148 5.8965308e-39
0.23472042 -1.3438674 0.77374154 5.9883677e-39
0.24445273 -1.3438673 0.7737416 5.8968923e-39
0.25557536 -1.3438673 0.7737416 5.8046939e-39
0.26530766 -1.3438673 0.77374166 5.8046925e-39
0.27503997 -1.3438673 0.77374166 5.8968895e-39
0.28477225 -1.3438673 0.77374166 5.988725e-39
0.29450455 -1.3438673 0.77374166 5.8965308e-39
0.30562723 -1.3438673 0.77374166 5.8043324e-39
0.31535947 -1.3438672 0.77374172 5.8961679e-39
0.32509178 -1.3438673 0.77374172 5.8961679e-39
0.33482412 -1.3438672 0.77374172 5.8961679e-39
0.34455642 -1.3438671 0.77374172 5.8961679e-39
0.35567904 -1.3438669 0.77374172 5.896528e-39
0.36541131 -1.3438669 0.77374172 5.988725e-39
0.37514362 -1.3438669 0.77374178 5.9883649e-39
0.38487592 -1.3438669 0.77374178 5.896528e-39
0.3946082 -1.3438671 0.77374178 5.9887236e-39
0.40511772 -1.3437141 0.77360505 5.7121382e-39
0.41468588 -1.3440195 0.77387857 6.357146e-39
0.4251954 -1.3438668 0.77374184 5.989088e-39
0.43492773 -1.3438669 0.77374178 5.9890852e-39
0.44466001 -1.3438668 0.77374196 6.0809207e-39
0.45516732 -1.3437141 0.77360517 5.8046953e-39
0.46473989 -1.3440193 0.77387863 6.264949e-39
0.47524723 -1.3438668 0.77374196 6.0801948e-39
0.48497951 -1.3438668 0.77374196 6.1723904e-39
0.49471182 -1.3438668 0.77374208 6.0805549e-39
0.5052169 -1.3437139 0.77360535 5.8043324e-39
0.51479393 -1.3440193 0.77387887 6.3578635e-39
0.52529901 -1.3438666 0.77374208 6.1731135e-39
0.53503132 -1.3438667 0.77374202 6.2645889e-39
0.54476357 -1.3438666 0.77374214 6.2645889e-39
0.5552665 -1.3437138 0.77360541 5.8965266e-39
0.56484795 -1.3440192 0.77387887 6.3567803e-39
0.57535076 -1.3438663 0.7737422 6.1727506e-39
0.58508307 -1.3438665 0.7737422 6.1727534e-39
0.59481537 -1.3438665 0.77374214 6.1727534e-39
0.60531604 -1.3437138 0.77360541 5.9883621e-39
0.61490196 -1.3440189 0.77387893 6.4489787e-39
0.62540257 -1.3438663 0.7737422 6.1727562e-39
0.63513488 -1.3438662 0.7737422 6.1731191e-39
0.64486712 -1.3438661 0.77374226 6.1734778e-39
0.65536553 -1.3437134 0.77360547 5.9883649e-39
0.66495591 -1.3440189 0.77387899 6.4497018e-39
0.67545438 -1.3438661 0.77374232 6.2653105e-39
0.68518662 -1.3438662 0.77374226 6.2649476e-39
0.69491893 -1.3438661 0.77374232 6.3567845e-39
0.70541513 -1.3437134 0.77360564 6.0805591e-39
0.71500987 -1.3440188 0.77387905 6.5411744e-39
0.72550607 -1.343866 0.77374232 6.357146e-39
0.73523837 -1.3438659 0.77374244 6.2649476e-39
0.74497062 -1.343866 0.77374238 6.3571432e-39
0.75470299 -1.343866 0.77374238 6.4489801e-39
0.76443517 -1.3438659 0.7737425 6.3567817e-39
0.77555782 -1.3438659 0.7737425 6.4482542e-39
0.78529006 -1.343866 0.7737425 6.4486158e-39
0.79502237 -1.3438659 0.77374244 6.4482557e-39
0.80475467 -1.3438659 0.7737425 6.4489759e-39
0.81448698 -1.3438659 0.77374256 6.3567817e-39
0.82497782 -1.3437132 0.77360588 6.0809179e-39
0.83458322 -1.3440183 0.77387935 6.5411729e-39
0.84507406 -1.3438656 0.77374262 6.3567817e-39
0.85480642 -1.3438658 0.77374262 6.3571432e-39
0.86453867 -1.3438658 0.77374262 6.3571418e-39
0.87502718 -1.3437129 0.77360594 6.1727534e-39
0.88463718 -1.3440181 0.77387941 6.5415317e-39
0.89512575 -1.3438656 0.77374268 6.4493403e-39
0.90485805 -1.3438655 0.77374268 6.4493417e-39
0.91041934 -1.3438654 0.77374274 6.4493403e-39
0.51318842 -1.7309928 0.78080046 9.0351717e-39
0.51773769 -1.7291886 0.78170109 9.0351717e-39
0.53326923 -1.7230301 0.78100634 9.0351717e-39
0.35957408 -1.6148109 0.78519267 4.0559113e-39
0.36105677 -1.6038733 0.78381068 4.2403011e-39
0.36416462 -1.5948291 0.78507978 3.4098286e-39
0.46344385 -1.5922461 0.78467691 6.8214411e-39
0.36769882 -1.5878805 0.78524661 3.4098286e-39
0.37155661 -1.5825248 0.78457016 3.5945772e-39
0.45831838 -1.5838355 0.78565019 4.2396159e-39
0.37683722 -1.5766348 0.78420454 3.8715228e-39
0.38224471 -1.5721909 0.78485227 3.5945786e-39
0.44647223 -1.572225 0.78483462 6.2686106e-39
0.45232981 -1.5770849 0.78395981 6.5455618e-39
0.38785461 -1.5687213 0.78497195 3.4105461e-39
0.39503703 -1.5653913 0.78502214 3.0421265e-39
0.40500355 -1.5626758 0.78506166 5.8998113e-39
0.41558361 -1.5618781 0.78482223 8.6653046e-39
0.42582786 -1.5630419 0.78453553 5.5310329e-39
0.43625924 -1.5664177 0.78522098 3.8718914e-39
0.44261965 -1.5696243 0.78626084 2.7655564e-39
0.40702283 -1.8625109 0.79715073 1.6410822e-38
0.72136301 -1.7906196 0.79367566 8.1074084e-39
0.71207225 -1.773586 0.79605407 1.3826801e-38
0.70543802 -1.7639298 0.79687864 1.9637669e-38
0.69685507 -1.7527752 0.79657602 1.9453278e-38
0.70014638 -1.7567712 0.79464179 1.9453278e-38
0.68904179 -1.7442827 0.79691476 1.89923e-38
0.69357699 -1.7487953 0.79849869 1.9453278e-38
0.67630839 -1.7326431 0.79757112 1.8531322e-38
0.68275422 -1.7381536 0.79613256 1.8807908e-38
0.65850842 -1.7200075 0.79378772 1.8070343e-38
0.66480726 -1.7239772 0.79682142 1.8070343e-38
0.67085689 -1.7282987 0.79532087 1.3365099e-38
0.49885362 -1.7121675 0.79393613 1.2630448e-38
0.50160241 -1.7108998 0.79642999 1.2077633e-38
0.64519471 -1.7125149 0.79600257 1.7701561e-38
0.65501982 -1.7177874 0.79737711 1.8070343e-38
0.5060218 -1.708867 0.79743803 1.1893243e-38
0.51532131 -1.7051393 0.79618853 1.216947e-38
0.52464217 -1.7026372 0.79681462 1.2907035e-38
0.53419077 -1.7042902 0.79561889 1.3091785e-38
0.61566472 -1.7011892 0.7975356 1.6779605e-38
0.62499708 -1.7039824 0.79614419 1.7148387e-38
0.63514066 -1.7078344 0.7970202 1.7332778e-38
0.53879035 -1.6983869 0.79522127 1.6410822e-38
0.5451197 -1.6973896 0.79572028 1.6410822e-38
0.55464107 -1.6960201 0.79640549 1.6410822e-38
0.56439263 -1.6953996 0.79671603 1.6410822e-38
0.57427114 -1.6951791 0.79682636 1.6410822e-38
0.58439589 -1.6956877 0.79657179 1.6410822e-38
0.59477568 -1.696911 0.79595965 1.6410822e-38
0.60455644 -1.6984398 0.79556638 1.4750211e-38
0.35977447 -1.6203449 0.79312682 2.1190912e-39
0.36017296 -1.6245031 0.79637134 2.2109267e-39
0.35950929 -1.6175785 0.79096842 2.3960354e-39
0.36044607 -1.6064069 0.79507756 2.3945935e-39
0.3635157 -1.5964488 0.79498792 2.5786232e-39
0.36824968 -1.587109 0.79462069 2.0261739e-39
0.37198028 -1.5820094 0.79557592 2.7630088e-39
0.45667815 -1.58183 0.79567069 2.3953474e-39
0.46156934 -1.5887185 0.79375458 3.5006075e-39
0.3769263 -1.5766661 0.79534006 2.2105609e-39
0.38276377 -1.5718352 0.79466569 2.2105609e-39
0.44659796 -1.5722344 0.79445028 3.4087552e-39
0.45265761 -1.5771977 0.7946074 3.3165666e-39
0.38723674 -1.5690498 0.79475749 1.3815317e-39
0.39555621 -1.5652139 0.79471612 1.473726e-39
0.40528545 -1.5626174 0.79506761 4.9778606e-39
0.4149884 -1.5618201 0.79585636 8.665306e-39
0.42456686 -1.5627891 0.79532814 4.1477482e-39
0.43420601 -1.5655549 0.79426432 1.5662915e-39
0.44140467 -1.5689713 0.79550916 3.2243597e-39
0.57564324 -1.9627113 0.80522382 1.6410822e-38
0.57308525 -1.9564186 0.80011243 2.2587929e-38
0.56635422 -1.9408541 0.80011392 2.3509886e-38
0.56420392 -1.9316165 0.80011564 2.3509886e-38
0.56023419 -1.9224538 0.80011648 2.3509886e-38
0.55812472 -1.9133607 0.80011827 2.3509886e-38
0.40705347 -1.8669481 0.80494404 1.6410822e-38
0.40733615 -1.8481178 0.80562901 1.6410822e-38
0.718409 -1.7849244 0.80019897 1.9914256e-38
0.71548748 -1.7792962 0.80665845 2.0006452e-38
0.70687813 -1.7659174 0.8054052 1.9637669e-38
0.69703722 -1.7530212 0.80588543 1.9453278e-38
0.7016468 -1.7585064 0.80892074 1.9545474e-38
0.68694776 -1.7422069 0.805435 1.89923e-38
0.69196254 -1.7471504 0.80493784 1.89923e-38
0.67640048 -1.7326838 0.80379695 1.8531322e-38
0.68196625 -1.7373124 0.80592281 1.8807908e-38
0.65966302 -1.7206738 0.80838418 1.8070343e-38
0.66523117 -1.7242877 0.80449808 1.8162539e-38
0.67252856 -1.7295687 0.8077963 1.8531322e-38
0.50167441 -1.7108495 0.80649155 1.1801048e-38
0.64550781 -1.7126377 0.80434239 1.7701561e-38
0.6544863 -1.7174518 0.80549031 1.7885952e-38
0.50729287 -1.7082701 0.80479181 1.1708852e-38
0.51525503 -1.7051318 0.80448169 1.1708852e-38
0.52473933 -1.7025776 0.80505413 1.28152e-38
0.53548646 -1.7040293 0.8053956 1.2261666e-38
0.61622804 -1.7013248 0.8048802 1.6779605e-38
0.62524247 -1.7040768 0.80537152 1.7056192e-38
0.63436401 -1.7074991 0.8044287 1.7240583e-38
0.64011544 -1.7099154 0.80620992 1.7701561e-38
0.53807729 -1.6984997 0.80072874 1.6410822e-38
0.54448819 -1.6974461 0.80531657 1.6410822e-38
0.55500162 -1.69599 0.80566788 1.6410822e-38
0.56527579 -1.6953549 0.80598176 1.6410822e-38
0.57515889 -1.6952206 0.80604839 1.6410822e-38
0.58526391 -1.6957397 0.80579162 1.6410822e-38
0.59504473 -1.6968956 0.80521971 1.6410822e-38
0.60433555 -1.6983811 0.80402297 1.6503018e-38
0.61072707 -1.6998649 0.80560076 1.6779605e-38
0.35995501 -1.6109955 0.80880755 1.1975062e-39
0.36126339 -1.6040167 0.80470735 2.3942347e-39
0.36503577 -1.5928488 0.80582708 1.9339825e-39
0.46465114 -1.5945197 0.80494332 3.5928045e-39
0.36872736 -1.5860186 0.8041082 1.5655643e-39
0.37178677 -1.5822442 0.80611354 2.1187282e-39
0.45791927 -1.5833482 0.80552942 1.9350951e-39
