# .PCD v0.7 - Point Cloud Data file format
VERSION 0.7
FIELDS x y z rgb
SIZE 4 4 4 4
TYPE F F F F
COUNT 1 1 1 1
WIDTH 1025
HEIGHT 1
VIEWPOINT 0 0 0 1 0 0 0
POINTS 1025
DATA ascii
0.82552153 -1.6553389 0.77470046 7.8311817e-39
0.8353405 -1.6553389 0.77470058 7.9233773e-39
0.84515953 -1.6553389 0.77470058 8.0155744e-39
0.8549785 -1.6553388 0.77470064 8.10777e-39
0.86479741 -1.6553388 0.77470064 8.0155744e-39
0.87461644 -1.6553389 0.77470058 7.9233773e-39
0.88443547 -1.6553388 0.77470064 7.7386259e-39
0.89425445 -1.6553388 0.77470064 7.7389861e-39
0.90407342 -1.6553388 0.77470064 7.7389861e-39
0.91225588 -1.6553386 0.7747007 7.8311817e-39
0.10829504 -1.6448647 0.77469921 8.1081329e-39
0.11480788 -1.6448646 0.77469921 8.1081329e-39
0.12457713 -1.6448646 0.77469927 8.0162974e-39
0.13434637 -1.6448646 0.77469927 8.0159373e-39
0.14411561 -1.6448646 0.77469927 8.0155758e-39
0.15388486 -1.6448646 0.77469927 8.0155758e-39
0.16454872 -1.6443678 0.77469927 8.0155744e-39
0.17504881 -1.6448644 0.77469927 8.0155744e-39
0.18555675 -1.6453611 0.77469933 8.0155758e-39
0.19621825 -1.6448644 0.77469945 8.0159373e-39
0.2037129 -1.6437055 0.77469939 8.0159387e-39
0.24506445 -1.6448641 0.77469951 7.9233801e-39
0.2548337 -1.644864 0.77469951 7.8311831e-39
0.26460293 -1.644864 0.77469951 7.9237417e-39
0.27437219 -1.644864 0.77469951 7.9241032e-39
0.28414145 -1.644864 0.77469963 7.9241032e-39
0.29477385 -1.6443675 0.77469963 7.8322691e-39
0.30530539 -1.644864 0.77469963 7.8322705e-39
0.31507465 -1.644864 0.77469963 7.7404364e-39
0.32484385 -1.644864 0.77469963 7.8326306e-39
0.33461308 -1.6448637 0.77469969 7.9244675e-39
0.34515953 -1.6453604 0.77469969 7.8319104e-39
0.35578251 -1.6448637 0.77469969 7.7400721e-39
0.36229536 -1.6448638 0.77469969 7.8319104e-39
0.47875279 -1.6413867 0.77469993 7.9248291e-39
0.48522973 -1.6441681 0.77469993 7.9244675e-39
0.49499068 -1.64536 0.77470005 7.9241032e-39
0.50557745 -1.6448632 0.77469999 7.8319048e-39
0.51534671 -1.6448632 0.77469999 7.9237403e-39
0.52511597 -1.6448631 0.77469999 7.9237389e-39
0.53488517 -1.6448631 0.77470011 8.0155715e-39
0.54465443 -1.6448632 0.77470011 8.0152128e-39
0.55442363 -1.6448631 0.77470011 7.9230172e-39
0.5649907 -1.6443663 0.77470011 7.9230158e-39
0.57558751 -1.644863 0.77470011 7.8311817e-39
0.58535677 -1.6448631 0.77470011 7.831546e-39
0.59512603 -1.644863 0.77470016 7.9237431e-39
0.60489523 -1.644863 0.77470016 7.9233815e-39
0.61466449 -1.644863 0.77470016 7.8315446e-39
0.6244337 -1.6448628 0.77470016 7.831909e-39
0.6342029 -1.6448628 0.77470016 7.9241032e-39
0.6448217 -1.6453594 0.77470022 7.9241018e-39
0.65537232 -1.6448627 0.77470022 8.0159387e-39
0.66514152 -1.6448627 0.77470022 7.9237403e-39
0.67491078 -1.6448627 0.77470022 7.8315446e-39
0.68467999 -1.6448627 0.77470022 7.9237403e-39
0.69521564 -1.644366 0.77470028 7.9241004e-39
0.70584393 -1.6448625 0.77470034 7.9237403e-39
0.71561313 -1.6448625 0.77470034 8.0155744e-39
0.72538233 -1.6448625 0.7747004 8.1077686e-39
0.73515153 -1.6448625 0.7747004 8.107407e-39
0.74492079 -1.6448625 0.7747004 8.015573e-39
0.75468999 -1.6448625 0.7747004 7.9237389e-39
0.76445919 -1.6448625 0.77470046 8.0155744e-39
0.77422839 -1.6448623 0.7747004 8.1077714e-39
0.7839976 -1.6448623 0.77470046 8.1077714e-39
0.79465264 -1.6453588 0.77470052 8.0159373e-39
0.80516702 -1.6448623 0.77470058 8.0159387e-39
0.81493634 -1.6448622 0.77470046 7.9237403e-39
0.82544047 -1.6443657 0.77470058 7.8311831e-39
0.83610016 -1.6448623 0.77470058 7.9233773e-39
0.84586936 -1.6448622 0.77470058 8.0155744e-39
0.85563868 -1.6448622 0.77470058 8.0155758e-39
0.86540776 -1.6448621 0.77470058 7.9233787e-39
0.87517709 -1.6448622 0.77470064 7.8311817e-39
0.88494629 -1.6448621 0.77470064 7.8308216e-39
0.89471549 -1.6448621 0.77470064 7.8308216e-39
0.90448475 -1.6448618 0.77470064 7.8308216e-39
0.91262573 -1.6448619 0.77470064 7.9230172e-39
0.10785939 -1.6344818 0.77469921 8.0159373e-39
0.11433934 -1.6344818 0.77469921 8.0159359e-39
0.12405927 -1.6344818 0.77469927 8.0159373e-39
0.13377918 -1.6344818 0.77469927 8.0159387e-39
0.14511912 -1.6344817 0.77469927 7.9237403e-39
0.15645903 -1.6344815 0.77469939 8.0155744e-39
0.16617896 -1.6344815 0.77469939 8.1074098e-39
0.17589886 -1.6344815 0.77469939 8.0155744e-39
0.18561882 -1.6344814 0.77469939 8.0155758e-39
0.19533873 -1.6344814 0.77469939 8.0159331e-39
0.20343867 -1.6344814 0.77469939 8.0159345e-39
0.24555835 -1.6344813 0.77469945 7.9237417e-39
0.25365829 -1.6344811 0.77469945 8.0159373e-39
0.2649982 -1.6344812 0.77469951 8.0162988e-39
0.2763381 -1.6344811 0.77469951 7.9241018e-39
0.28605804 -1.6344811 0.77469951 7.8322677e-39
0.29577795 -1.6344811 0.77469951 7.8322691e-39
0.30549788 -1.6344811 0.77469951 7.7400749e-39
0.31521779 -1.6344811 0.77469963 7.7400749e-39
0.3249377 -1.6344811 0.77469963 7.8322719e-39
0.33465764 -1.6344811 0.77469963 7.9244675e-39
0.34437755 -1.634481 0.77469969 7.8319076e-39
0.35409746 -1.634481 0.77469969 7.8311859e-39
0.3605774 -1.634481 0.77469969 7.8315446e-39
0.47721642 -1.6344805 0.77469993 7.9244661e-39
0.48369634 -1.6344805 0.77469993 7.9244647e-39
0.49503624 -1.6344805 0.77469993 7.9241032e-39
0.50637621 -1.6344805 0.77469993 7.8319076e-39
0.51609606 -1.6344805 0.77469993 7.9237417e-39
0.52581602 -1.6344804 0.77469999 7.924099e-39
0.53553593 -1.6344804 0.77469999 8.0159345e-39
0.54525584 -1.6344804 0.77469999 8.0162946e-39
0.55497575 -1.6344801 0.77469999 8.0155744e-39
0.56469566 -1.6344801 0.77469999 8.0152114e-39
0.5744155 -1.6344801 0.77470011 7.9237375e-39
0.58413547 -1.6344801 0.77470011 7.9237431e-39
0.59385538 -1.6344801 0.77470011 7.9241032e-39
0.60357529 -1.6344801 0.77470016 7.9237417e-39
0.61491519 -1.6344801 0.77470016 7.9237403e-39
0.6262551 -1.6344801 0.77470016 7.9241032e-39
0.63597494 -1.63448 0.77470016 7.9241018e-39
0.64569491 -1.63448 0.77470022 8.0159373e-39
0.65541476 -1.63448 0.77470022 8.0163002e-39
0.66513473 -1.63448 0.77470022 7.9237431e-39
0.67485458 -1.63448 0.77470022 7.8311831e-39
0.68457454 -1.6344799 0.77470034 7.8311831e-39
0.69429445 -1.6344799 0.77470034 7.8315446e-39
0.70401436 -1.6344799 0.77470034 7.9237403e-39
0.71373421 -1.6344799 0.77470034 8.015573e-39
0.72507411 -1.6344798 0.77470034 8.1077686e-39
0.73641402 -1.6344796 0.77470034 8.107407e-39
0.74613386 -1.6344796 0.77470034 8.0155715e-39
0.75585383 -1.6344796 0.77470034 7.9237403e-39
0.76557374 -1.6344796 0.77470034 8.0159345e-39
0.77529365 -1.6344795 0.7747004 8.0159345e-39
0.7850135 -1.6344795 0.7747004 7.9241046e-39
0.79473346 -1.6344795 0.77470046 7.8322705e-39
0.80445331 -1.6344794 0.77470046 7.9241018e-39
0.81417322 -1.6344794 0.77470046 7.9237431e-39
0.82389313 -1.6344794 0.77470046 7.7393476e-39
0.83361298 -1.6344794 0.77470046 7.8311817e-39
0.84495294 -1.6344794 0.77470052 7.9237375e-39
0.85629272 -1.6344792 0.77470058 8.015573e-39
0.86601275 -1.6344794 0.77470058 7.9230172e-39
0.8757326 -1.6344792 0.77470058 7.8311817e-39
0.88545251 -1.6344792 0.77470058 7.8311803e-39
0.89517236 -1.6344792 0.77470064 7.8311817e-39
0.90489227 -1.6344792 0.77470064 7.9233773e-39
0.91137224 -1.6344792 0.77470064 7.9233773e-39
0.1074286 -1.6242149 0.77469921 7.9241046e-39
0.11387604 -1.6242148 0.77469921 7.9241018e-39
0.12444244 -1.6237279 0.77469921 8.0159359e-39
0.13554682 -1.6247014 0.77469921 7.9237403e-39
0.14611323 -1.6242146 0.77469921 7.8311831e-39
0.15578438 -1.6242146 0.77469927 7.9233773e-39
0.16545556 -1.6242146 0.77469927 7.9233787e-39
0.17512672 -1.6242146 0.77469927 7.9237403e-39
0.18479787 -1.6242146 0.77469927 8.0155758e-39
0.19446902 -1.6242145 0.77469939 8.0155758e-39
0.20343339 -1.623533 0.77469933 8.0159359e-39
0.24604852 -1.6242143 0.77469945 8.0155772e-39
0.25571966 -1.6242145 0.77469945 8.0163002e-39
0.26539084 -1.6242142 0.77469951 8.0159401e-39
0.27506199 -1.6242145 0.77469945 7.9241032e-39
0.28473315 -1.6242143 0.77469951 7.8322691e-39
0.2944043 -1.6242143 0.77469963 7.7400735e-39
0.30407545 -1.6242142 0.77469951 7.6475177e-39
0.31459635 -1.6237274 0.77469963 7.6475191e-39
0.3250269 -1.6242142 0.77469963 7.6482408e-39
0.33469808 -1.6242141 0.77469963 7.740435e-39
0.34513861 -1.6247008 0.77469963 7.6478778e-39
0.35565493 -1.6242138 0.77469969 7.5553207e-39
0.47654426 -1.6242137 0.77469987 7.9241046e-39
0.48460355 -1.6242137 0.77469987 7.9244661e-39
0.49508134 -1.6237268 0.77469987 7.9237431e-39
0.50555497 -1.6242136 0.77469993 7.9237403e-39
0.51522613 -1.6242136 0.77469993 7.9233801e-39
0.52489728 -1.6242136 0.77469993 7.9237431e-39
0.53456849 -1.6242136 0.77469993 8.0159373e-39
0.54505676 -1.6247003 0.77470005 8.0162974e-39
0.5555253 -1.6242133 0.77469999 8.0162974e-39
0.56519645 -1.6242133 0.77469999 8.0159373e-39
0.57486755 -1.6242132 0.77469999 7.9237403e-39
0.58453876 -1.6242132 0.77469999 7.9237417e-39
0.59499264 -1.6237267 0.77470005 7.9241032e-39
0.60549015 -1.6242132 0.77469999 7.9241018e-39
0.6151613 -1.6242131 0.77470016 7.9241046e-39
0.62483245 -1.6242132 0.77470011 7.9244633e-39
0.6345036 -1.6242131 0.77470016 7.9241032e-39
0.6441747 -1.6242131 0.77470016 7.9241032e-39
0.65468925 -1.6246997 0.77470016 8.0163002e-39
0.66513157 -1.6242129 0.77470016 7.9237417e-39
0.6748026 -1.6242129 0.77470016 7.7389889e-39
0.6852349 -1.6237261 0.77470016 7.8311831e-39
0.69575411 -1.6242129 0.77470016 7.8311845e-39
0.70542526 -1.6242127 0.77470016 7.9237389e-39
0.71509641 -1.6242127 0.77470022 8.0159345e-39
0.72476751 -1.6242127 0.77470022 8.0159331e-39
0.73443866 -1.6242127 0.77470022 8.0155715e-39
0.74410981 -1.6242127 0.77470022 8.0152114e-39
0.75464821 -1.6246995 0.77470028 7.9233773e-39
0.76506662 -1.6242126 0.77470034 7.9237375e-39
0.77547735 -1.6237259 0.77470028 7.9233787e-39
0.78601807 -1.6242126 0.7747004 7.9237403e-39
0.79568917 -1.6242126 0.77470034 7.9237403e-39
0.80536032 -1.6242126 0.7747004 7.8315446e-39
0.81503147 -1.6242124 0.77470046 7.8315432e-39
0.82470256 -1.6242126 0.7747004 7.8311845e-39
0.83437371 -1.6242124 0.77470046 7.8311831e-39
0.84404486 -1.6242124 0.7747004 7.9233773e-39
0.85460716 -1.6246994 0.77470052 7.9233773e-39
0.86500168 -1.6242123 0.77470046 7.9233773e-39
0.87538844 -1.6237257 0.77470058 7.9233773e-39
0.88595301 -1.6242123 0.77470058 7.9230172e-39
0.89562416 -1.6242123 0.77470058 7.9233773e-39
0.90529531 -1.6242121 0.77470064 7.9233773e-39
0.91174275 -1.6242121 0.77470064 7.9233787e-39
0.10700163 -1.6140391 0.77469915 7.9241032e-39
0.11502066 -1.6140391 0.77469921 7.9237417e-39
0.12624727 -1.6140389 0.77469921 8.0155758e-39
0.13587011 -1.6140389 0.77469921 8.0155758e-39
0.14549293 -1.6140389 0.77469921 7.8311831e-39
0.15511574 -1.6140389 0.77469921 7.9233773e-39
0.16473858 -1.6140388 0.77469927 7.9237403e-39
0.17436139 -1.6140388 0.77469927 8.0155744e-39
0.18398422 -1.6140388 0.77469939 8.0155758e-39
0.19360705 -1.6140388 0.77469939 7.9233787e-39
0.20322986 -1.6140388 0.77469939 7.9233773e-39
0.24492876 -1.6140385 0.77469939 8.0159373e-39
0.25455156 -1.6140385 0.77469939 8.0163002e-39
0.26417437 -1.6140385 0.77469939 8.0162974e-39
0.27379718 -1.6140385 0.77469945 7.9241046e-39
0.28502381 -1.6140383 0.77469945 7.8319076e-39
0.29625043 -1.6140383 0.77469945 7.7393504e-39
0.30587327 -1.6140383 0.77469945 7.6475149e-39
0.31549609 -1.6140383 0.77469945 7.6475163e-39
0.3251189 -1.6140383 0.77469951 7.6478778e-39
0.33474171 -1.6140383 0.77469951 7.6478792e-39
0.34436452 -1.6140381 0.77469951 7.5556836e-39
0.35632697 -1.6132987 0.77582723 7.9259193e-39
0.4758763 -1.6140379 0.77469987 7.9237431e-39
0.48549911 -1.6140379 0.77469987 7.9237431e-39
0.49512187 -1.6140376 0.77469987 7.9237403e-39
0.50474471 -1.6140376 0.77469987 7.9237417e-39
0.51436752 -1.6140376 0.77469987 7.9237417e-39
0.52399039 -1.6140375 0.77469993 7.9237431e-39
0.53361315 -1.6140375 0.77469993 8.0162974e-39
0.5448398 -1.6140375 0.77469993 8.0162974e-39
0.55606633 -1.6140375 0.77469993 8.0162988e-39
0.56568915 -1.6140375 0.77469993 8.0162988e-39
0.57531196 -1.6140375 0.77469993 7.9241046e-39
0.58493477 -1.6140375 0.77469999 7.9241046e-39
0.59455758 -1.6140375 0.77469999 7.9241032e-39
0.6041804 -1.6140374 0.77469999 7.9241018e-39
0.61380321 -1.6140374 0.77469999 7.9241032e-39
0.62502986 -1.6140374 0.77470005 7.8322677e-39
0.6362564 -1.6140372 0.77470011 7.9241018e-39
0.64587921 -1.6140372 0.77470011 7.9241046e-39
0.65550202 -1.6140372 0.77470016 8.0166618e-39
0.66512483 -1.6140372 0.77470016 7.8322677e-39
0.67474765 -1.6140372 0.77470016 7.8315446e-39
0.68437046 -1.6140372 0.77470016 7.8311831e-39
0.69399327 -1.614037 0.77470016 7.8311831e-39
0.70361596 -1.614037 0.77470022 7.9233773e-39
0.71484268 -1.614037 0.77470022 8.0159331e-39
0.72606927 -1.6140369 0.77470022 8.0155744e-39
0.73569202 -1.6140369 0.77470034 8.0155715e-39
0.74531484 -1.6140369 0.77470034 8.015573e-39
0.75493765 -1.6140369 0.77470034 8.0159345e-39
0.7645604 -1.6140369 0.77470034 7.8315446e-39
0.77418321 -1.6140369 0.77470034 7.7393476e-39
0.78380603 -1.6140369 0.7747004 7.9237431e-39
0.79503262 -1.6140367 0.7747004 8.0159373e-39
0.80625921 -1.6140367 0.7747004 7.9233801e-39
0.81588203 -1.6140367 0.7747004 7.8311845e-39
0.82550484 -1.6140367 0.77470046 7.7389903e-39
0.83512759 -1.6140367 0.77470046 7.7389889e-39
0.8447504 -1.6140366 0.77470046 7.8311831e-39
0.85437322 -1.6140366 0.77470046 7.9233787e-39
0.86399603 -1.6140366 0.77470046 8.015573e-39
0.87361884 -1.6140366 0.77470046 8.015573e-39
0.88484538 -1.6140366 0.77470052 8.0155744e-39
0.89607197 -1.6140364 0.77470058 7.9233787e-39
0.90569478 -1.6140364 0.77470058 7.9233773e-39
0.91210997 -1.6140364 0.77470058 7.9237375e-39
0.10817523 -1.6039755 0.77469915 7.8319076e-39
0.1161544 -1.6039754 0.77469915 7.8319048e-39
0.12572943 -1.6039754 0.77469921 7.8319048e-39
0.13530445 -1.6039754 0.77469921 7.9237431e-39
0.14487948 -1.6039754 0.77469921 7.739349e-39
0.15445448 -1.6039753 0.77469921 7.8311845e-39
0.16402952 -1.6039753 0.77469921 7.9241032e-39
0.17447904 -1.6034982 0.77469921 7.8319062e-39
0.18549672 -1.6044524 0.77469921 7.9237417e-39
0.19594626 -1.6039753 0.77469927 7.9237389e-39
0.20552127 -1.6039753 0.77469927 8.0155772e-39
0.24467923 -1.6034981 0.77469927 8.0163002e-39
0.25498953 -1.6039752 0.77469939 8.0163002e-39
0.26530743 -1.6044521 0.77469933 8.0162974e-39
0.27573806 -1.6039749 0.77469939 7.9241004e-39
0.28531304 -1.6039752 0.77469945 7.831546e-39
0.29488808 -1.6039749 0.77469945 7.7397119e-39
0.30446312 -1.6039749 0.77469945 7.6478764e-39
0.31487942 -1.6034979 0.77469951 7.6478792e-39
0.32520631 -1.6039749 0.77469951 7.6482394e-39
0.33478138 -1.6039747 0.77469951 7.7400749e-39
0.34511811 -1.6044518 0.77469963 7.8322719e-39
0.35552987 -1.6039747 0.77469963 7.8326306e-39
0.36139789 -1.6016178 0.77597886 8.3872618e-39
0.46968704 -1.6006347 0.77469975 7.8319048e-39
0.47521481 -1.6039743 0.77469975 7.831546e-39
0.48478985 -1.6039745 0.77469975 7.8315446e-39
0.49516207 -1.6044513 0.77469975 7.8311845e-39
0.50553828 -1.6039742 0.77469975 7.831546e-39
0.51511335 -1.6039742 0.77469975 7.9237417e-39
0.5246883 -1.6039742 0.77469987 8.0159373e-39
0.53505248 -1.6034971 0.77469981 8.0159373e-39
0.54543155 -1.6039742 0.77469987 8.0163002e-39
0.55500656 -1.603974 0.77469993 8.1081329e-39
0.56458163 -1.603974 0.77469993 8.0159359e-39
0.57497275 -1.6044512 0.77469987 7.9241032e-39
0.58533007 -1.603974 0.77469993 7.9244633e-39
0.59490508 -1.603974 0.77469999 7.9244647e-39
0.60525256 -1.6034969 0.77470005 7.9241032e-39
0.61564827 -1.6039737 0.77470011 7.9241018e-39
0.62522328 -1.6039737 0.77469999 7.9241032e-39
0.63479823 -1.6039739 0.77470011 7.9237431e-39
0.64437324 -1.6039737 0.77470011 7.9241032e-39
0.65478331 -1.6044508 0.77470011 8.0162974e-39
0.66512179 -1.6039737 0.77470011 7.9237417e-39
0.67545265 -1.6034966 0.77470011 7.8315446e-39
0.68586493 -1.6039737 0.77470016 7.9233787e-39
0.69543988 -1.6039735 0.77470016 8.0155744e-39
0.70501494 -1.6039737 0.77470016 8.0155744e-39
0.71458989 -1.6039735 0.77470016 8.0155758e-39
0.72416496 -1.6039735 0.77470022 8.0155744e-39
0.73459381 -1.6044505 0.77470022 8.0152114e-39
0.7449134 -1.6039735 0.77470022 8.015573e-39
0.75522536 -1.6034964 0.77470022 8.0159345e-39
0.76565653 -1.6039734 0.77470022 7.9233787e-39
0.77523154 -1.6039734 0.77470034 7.9233773e-39
0.78480655 -1.6039734 0.77470034 8.0159359e-39
0.79438162 -1.6039734 0.77470034 8.0159359e-39
0.80395657 -1.6039734 0.77470034 7.9237417e-39
0.81440437 -1.6044505 0.77470046 7.831546e-39
0.82542551 -1.6034962 0.77470046 7.7393504e-39
0.83587331 -1.6039733 0.7747004 7.7393504e-39
0.8454482 -1.603973 0.7747004 7.739349e-39
0.85502321 -1.6039733 0.77470046 7.8315432e-39
0.86459821 -1.603973 0.77470046 7.9233787e-39
0.87417316 -1.603973 0.77470046 7.9233787e-39
0.88463753 -1.6044502 0.77470058 7.9233787e-39
0.89562547 -1.603496 0.77470058 7.9233787e-39
0.90608984 -1.603973 0.77470058 8.015573e-39
0.9124732 -1.6039729 0.77470052 8.0155744e-39
0.10616084 -1.5940007 0.77469903 7.8315474e-39
0.11568848 -1.5940005 0.77469915 7.8315446e-39
0.12521613 -1.5940005 0.77469915 7.9233801e-39
0.13474376 -1.5940005 0.77469915 7.9237417e-39
0.1442714 -1.5940005 0.77469915 7.8315446e-39
0.15379904 -1.5940005 0.77469915 7.9233815e-39
0.16491462 -1.5940005 0.77469921 7.9244647e-39
0.1760302 -1.5940005 0.77469921 7.8319062e-39
0.18555784 -1.5940005 0.77469921 7.9241032e-39
0.19508548 -1.5940005 0.77469921 7.9237417e-39
0.20461313 -1.5940005 0.77469921 8.0159359e-39
0.23954777 -1.5940002 0.77469933 8.0166604e-39
0.24589954 -1.5940002 0.77469939 8.0166618e-39
0.25542718 -1.5940002 0.77469939 8.0163016e-39
0.26495481 -1.5940002 0.77469939 8.0159387e-39
0.27448246 -1.5940002 0.77469939 8.0159359e-39
0.28401008 -1.5940002 0.77469939 7.9241032e-39
0.29512566 -1.5940001 0.77469945 7.8326334e-39
0.30624124 -1.594 0.77469945 7.8326334e-39
0.31576887 -1.594 0.77469945 7.8326334e-39
0.32529649 -1.5939999 0.77469945 7.9248277e-39
0.33482412 -1.5939999 0.77469951 7.9248305e-39
0.34435177 -1.5939999 0.77469951 7.9251906e-39
0.35387936 -1.5939999 0.77469951 8.0170261e-39
0.36375612 -1.5933273 0.77651441 8.4798217e-39
0.46603525 -1.5943031 0.77573991 1.0414115e-38
0.47456273 -1.5939995 0.77469969 7.7393504e-39
0.48409033 -1.5939995 0.77469975 7.7389875e-39
0.49520594 -1.5939995 0.77469981 7.7389861e-39
0.50632143 -1.5939994 0.77469987 7.739349e-39
0.51584905 -1.5939994 0.77469987 7.9237431e-39
0.52537674 -1.5939994 0.77469987 8.0155772e-39
0.5349043 -1.5939993 0.77469987 8.0155772e-39
0.54443198 -1.5939993 0.77469987 8.0159387e-39
0.55395961 -1.5939993 0.77469987 8.0162974e-39
0.56507516 -1.5939993 0.77469993 8.0162974e-39
0.57619071 -1.5939993 0.77469993 7.9244633e-39
0.58571833 -1.5939993 0.77469993 7.9244647e-39
0.59524596 -1.593999 0.77469993 7.9244647e-39
0.60477358 -1.593999 0.77469993 7.9241046e-39
0.61430115 -1.593999 0.77469999 7.9237417e-39
0.62382883 -1.5939989 0.77469999 7.9241032e-39
0.63494432 -1.5939989 0.77470005 7.9233815e-39
0.64605993 -1.5939989 0.77470011 7.9237431e-39
0.65558761 -1.5939989 0.77469999 8.0159359e-39
0.66511518 -1.5939989 0.77470011 7.9233787e-39
0.6746428 -1.5939988 0.77470011 7.8315432e-39
0.68417042 -1.5939988 0.77470011 7.9233787e-39
0.69369799 -1.5939988 0.77470016 8.015573e-39
0.7048136 -1.5939988 0.77470016 8.015573e-39
0.71592909 -1.5939988 0.77470016 8.10777e-39
0.72545677 -1.5939988 0.77470016 8.1074098e-39
0.73498434 -1.5939986 0.77470022 8.015573e-39
0.74451202 -1.5939986 0.77470022 8.1074084e-39
0.75403959 -1.5939986 0.77470022 8.1077714e-39
0.7651552 -1.5939987 0.77470028 7.9233773e-39
0.77627069 -1.5939986 0.77470034 7.9233759e-39
0.78579831 -1.5939984 0.77470034 8.0159359e-39
0.79532593 -1.5939984 0.77470034 8.1077714e-39
0.8048535 -1.5939984 0.77470034 8.0159345e-39
0.81438112 -1.5939984 0.77470034 7.9237403e-39
0.82390875 -1.5939983 0.7747004 7.831546e-39
0.8350243 -1.5939983 0.7747004 7.7397077e-39
0.84613985 -1.5939983 0.77470046 7.739349e-39
0.85566753 -1.5939983 0.7747004 7.8311845e-39
0.8651951 -1.5939983 0.77470046 7.9233801e-39
0.87472266 -1.5939983 0.77470046 7.9237403e-39
0.88425034 -1.5939983 0.77470046 8.0155758e-39
0.89377785 -1.5939981 0.77470046 8.0155758e-39
0.90489352 -1.5939981 0.77470052 8.0159359e-39
0.91283315 -1.5939981 0.77470052 8.0159373e-39
0.10574689 -1.5841347 0.77469903 7.831546e-39
0.11522766 -1.5841347 0.77469903 7.8315446e-39
0.12470844 -1.5841347 0.77469915 7.8315446e-39
0.1341892 -1.5841347 0.77469915 7.9233801e-39
0.14454293 -1.5836669 0.77469915 7.8315432e-39
0.15543808 -1.5846022 0.77469921 7.8322691e-39
0.16579179 -1.5841346 0.77469921 7.9244647e-39
0.17527258 -1.5841346 0.77469921 7.9241018e-39
0.18475334 -1.5841345 0.77469921 7.9241046e-39
0.19423413 -1.5841345 0.77469921 7.9237403e-39
0.20457377 -1.5836667 0.77469921 8.0155744e-39
0.21034388 -1.5874087 0.77469927 8.0159359e-39
0.23847774 -1.5841343 0.77469933 7.9244647e-39
0.24479824 -1.5841345 0.77469939 7.9244661e-39
0.25427902 -1.5841342 0.77469939 7.924106e-39
0.2646046 -1.5836664 0.77469933 7.9237431e-39
0.27555603 -1.584602 0.77469939 7.9237417e-39
0.28588161 -1.5841342 0.77469945 7.9241046e-39
0.29536238 -1.5841341 0.77469945 7.9244661e-39
0.30484316 -1.5841341 0.77469945 8.0166618e-39
0.3143239 -1.584134 0.77469945 8.0166646e-39
0.32463536 -1.5836662 0.77469951 7.9244689e-39
0.33486298 -1.584134 0.77469951 7.9244661e-39
0.34509799 -1.5846018 0.77469951 7.9248291e-39
0.35540724 -1.584134 0.77469951 8.0166646e-39
0.36533016 -1.5844171 0.77531642 8.2021432e-39
0.37210777 -1.5811594 0.77633548 8.5727418e-39
0.45852 -1.5831552 0.77613842 1.1152766e-38
0.46601617 -1.5841336 0.77469969 7.8315432e-39
0.47549692 -1.5841335 0.77469969 7.7389875e-39
0.48497769 -1.5841335 0.77469975 7.6467918e-39
0.49524921 -1.5836658 0.77469975 7.6467918e-39
0.50551677 -1.5841335 0.77469975 7.7393504e-39
0.51499754 -1.5841335 0.77469975 7.9237417e-39
0.52447826 -1.5841335 0.77469975 7.9237417e-39
0.53475767 -1.5846012 0.77469981 7.9241018e-39
0.54502255 -1.5841333 0.77469987 8.0162988e-39
0.55527991 -1.5836656 0.77469987 8.1081329e-39
0.56556159 -1.5841333 0.77469993 8.1081315e-39
0.57504231 -1.5841333 0.77469993 7.9241018e-39
0.58452314 -1.5841333 0.77469993 8.0159373e-39
0.59481663 -1.584601 0.77469987 8.0162988e-39
0.60506731 -1.5841333 0.77469993 7.9241032e-39
0.61531067 -1.5836655 0.77469999 7.9237431e-39
0.62560642 -1.5841331 0.77469999 7.9237431e-39
0.63508713 -1.584133 0.77469999 7.9233787e-39
0.64456791 -1.5841331 0.77469999 7.9237417e-39
0.6548754 -1.5846007 0.77470011 8.0159359e-39
0.66511208 -1.584133 0.77470011 7.9237389e-39
0.67534143 -1.5836651 0.77470011 7.9233801e-39
0.68565112 -1.5841328 0.77470011 7.9233801e-39
0.69513196 -1.5841328 0.77470011 8.0155744e-39
0.70461267 -1.5841328 0.77470016 8.0159359e-39
0.71493435 -1.5846004 0.77470016 8.0162946e-39
0.72515696 -1.5841327 0.77470016 8.0155744e-39
0.73537213 -1.583665 0.77470016 8.0152114e-39
0.74569589 -1.5841327 0.77470016 8.0155744e-39
0.75517672 -1.5841327 0.77470022 8.0155744e-39
0.7646575 -1.5841327 0.77470022 7.8311831e-39
0.77413815 -1.5841326 0.77470022 7.8311817e-39
0.78447616 -1.5846003 0.77470022 7.9241018e-39
0.79540288 -1.5836649 0.77470022 7.9244647e-39
0.80574065 -1.5841326 0.77470034 8.1081301e-39
0.81522149 -1.5841326 0.77470034 7.9241004e-39
0.8247022 -1.5841326 0.77470034 7.831546e-39
0.83418292 -1.5841326 0.7747004 7.7397091e-39
0.84453499 -1.5846002 0.77470034 7.8311831e-39
0.85543346 -1.5836647 0.77470046 7.8311845e-39
0.86578542 -1.5841323 0.7747004 7.8315446e-39
0.87526625 -1.5841323 0.77470046 7.9237417e-39
0.88474697 -1.5841322 0.77470046 8.0159345e-39
0.89422774 -1.5841323 0.77470046 8.0159345e-39
0.90459377 -1.5845999 0.77470052 8.0159373e-39
0.91217691 -1.5830408 0.77470046 8.0159373e-39
0.10533652 -1.5743548 0.77469903 7.9233801e-39
0.11477085 -1.5743548 0.77469903 7.8315432e-39
0.12420517 -1.5743546 0.77469903 7.8315446e-39
0.13521188 -1.5743546 0.77469909 7.9237403e-39
0.1462186 -1.5743546 0.77469903 7.9237403e-39
0.15565291 -1.5743546 0.77469903 7.9241046e-39
0.16508724 -1.5743545 0.77469915 7.9244647e-39
0.17452155 -1.5743545 0.77469915 7.9237431e-39
0.18395586 -1.5743545 0.77469921 7.9241032e-39
0.19496258 -1.5743544 0.77469921 8.0159359e-39
0.20596929 -1.5743545 0.77469921 8.0155744e-39
0.23741701 -1.5743544 0.77469927 7.9241046e-39
0.24527894 -1.5743544 0.77469927 7.9244647e-39
0.25628564 -1.5743543 0.77469927 7.9241046e-39
0.26571998 -1.5743543 0.77469939 7.9241018e-39
0.27515426 -1.5743543 0.77469939 7.9237417e-39
0.28458858 -1.5743542 0.77469939 7.9237403e-39
0.29402289 -1.5743542 0.77469939 7.9233801e-39
0.30502963 -1.5743542 0.77469939 7.9237417e-39
0.31603631 -1.5743542 0.77469939 7.924106e-39
0.32547063 -1.5743542 0.77469945 7.831909e-39
0.33490491 -1.5743541 0.77469945 7.8319062e-39
0.34433922 -1.5743541 0.77469945 7.8319076e-39
0.35377359 -1.5743541 0.77469945 7.8322677e-39
0.36478025 -1.5743539 0.77469951 7.9237431e-39
0.37644058 -1.5750649 0.77574384 8.2943417e-39
0.38245931 -1.5720495 0.77717376 8.8500574e-39
0.44629288 -1.572071 0.77716166 1.2353491e-38
0.45393664 -1.5758215 0.77604574 1.013753e-38
0.46384048 -1.5743536 0.77469969 7.9237389e-39
0.47484717 -1.5743536 0.77469969 7.8311831e-39
0.48585391 -1.5743536 0.77469969 7.6467904e-39
0.49528822 -1.5743536 0.77469975 7.6467918e-39
0.50472254 -1.5743536 0.77469969 7.739349e-39
0.51415682 -1.5743536 0.77469975 7.9233815e-39
0.52516353 -1.5743535 0.77469981 7.9237389e-39
0.53617018 -1.5743536 0.77469987 8.0155772e-39
0.54560453 -1.5743533 0.77469987 8.1077728e-39
0.55503887 -1.5743533 0.77469987 8.1081315e-39
0.56447315 -1.5743533 0.77469987 8.1084945e-39
0.57390743 -1.5743533 0.77469987 7.9241004e-39
0.58491409 -1.5743532 0.77469993 8.0155744e-39
0.5959208 -1.5743532 0.77469993 8.0159359e-39
0.60535514 -1.5743532 0.77469993 8.0159373e-39
0.61478949 -1.5743532 0.77469993 7.9241018e-39
0.62422371 -1.5743532 0.77469993 7.9241046e-39
0.63523036 -1.5743531 0.77469999 7.9233801e-39
0.64623708 -1.5743529 0.77469999 7.9237403e-39
0.65567136 -1.5743531 0.77469999 8.1074112e-39
0.6651057 -1.5743529 0.77469999 7.9233773e-39
0.67453998 -1.5743529 0.77470011 7.9230172e-39
0.68397427 -1.5743529 0.77470011 7.8311831e-39
0.69498098 -1.5743529 0.77470011 7.9233787e-39
0.70598769 -1.5743529 0.77470011 8.0155744e-39
0.71542192 -1.5743527 0.77470016 8.015573e-39
0.7248562 -1.5743527 0.77470016 8.1074084e-39
0.7342906 -1.5743527 0.77470016 8.0152114e-39
0.74372482 -1.5743527 0.77470016 8.015573e-39
0.75473154 -1.5743527 0.77470016 7.9237375e-39
0.76573819 -1.5743527 0.77470022 7.7389847e-39
0.77517247 -1.5743527 0.77470022 7.7389875e-39
0.78460675 -1.5743527 0.77470022 7.9237389e-39
0.7940411 -1.5743526 0.77470022 7.9241046e-39
0.80504775 -1.5743526 0.77470022 8.016296e-39
0.81605452 -1.5743526 0.77470022 8.0159373e-39
0.82548875 -1.5743526 0.77470034 7.8319062e-39
0.83492303 -1.5743526 0.77470034 7.8315474e-39
0.84435731 -1.5743526 0.77470034 7.8311845e-39
0.85379165 -1.5743524 0.77470034 7.831546e-39
0.86479831 -1.5743525 0.77470028 7.924106e-39
0.87580508 -1.5743524 0.77470034 7.9237431e-39
0.8852393 -1.5743523 0.77470034 8.0155744e-39
0.89467359 -1.5743523 0.7747004 8.0155758e-39
0.90410787 -1.5743523 0.7747004 8.0159359e-39
0.91196978 -1.5743523 0.7747004 8.0159373e-39
0.10493062 -1.5646807 0.77469897 7.9233787e-39
0.11431899 -1.5646807 0.77469897 7.8311831e-39
0.12457643 -1.564222 0.77469909 7.8311817e-39
0.1353561 -1.5651394 0.77469909 7.831546e-39
0.14561355 -1.5646806 0.77469903 7.9237417e-39
0.15500192 -1.5646806 0.77469903 7.9237431e-39
0.16439028 -1.5646805 0.77469915 7.9241032e-39
0.17463611 -1.5642217 0.77469915 7.8319076e-39
0.18543901 -1.5651392 0.77469915 7.9241046e-39
0.19568485 -1.5646805 0.77469915 8.0162988e-39
0.20507322 -1.5646805 0.77469921 8.10777e-39
0.23985054 -1.567891 0.77469921 7.9241032e-39
0.2457561 -1.5646802 0.77469921 7.9237445e-39
0.25514448 -1.5646802 0.77469927 7.9237403e-39
0.26453283 -1.5646802 0.77469927 7.9237417e-39
0.27475542 -1.5642214 0.77469927 7.9237431e-39
0.28487179 -1.5646801 0.77469927 7.9237431e-39
0.29499534 -1.5651388 0.77469927 7.9237417e-39
0.30521575 -1.5646802 0.77469939 7.9237417e-39
0.31460413 -1.5646801 0.77469939 7.9237417e-39
0.32481506 -1.5642213 0.77469951 7.8319062e-39
0.33494303 -1.56468 0.77469945 7.8319062e-39
0.34507826 -1.5651386 0.77469951 7.8315474e-39
0.35528705 -1.56468 0.77469945 7.8315474e-39
0.36467537 -1.5646797 0.77469945 7.7393518e-39
0.37487474 -1.5642213 0.77469951 7.5553207e-39
0.38588464 -1.5656049 0.77552772 7.925192e-39
0.39468884 -1.5643039 0.77630013 8.2950661e-39
0.40470025 -1.5620799 0.77614743 8.2947032e-39
0.41396081 -1.5616479 0.77638799 8.2950647e-39
0.42433152 -1.5619484 0.77596527 8.1099476e-39
0.43473923 -1.5639623 0.77644086 9.2170238e-39
0.44460851 -1.5655336 0.77511913 8.2932486e-39
0.45542946 -1.5646795 0.77469969 7.9233787e-39
0.46481785 -1.5646795 0.77469969 7.9233787e-39
0.47499394 -1.5642208 0.77469969 7.9237403e-39
0.48515677 -1.5646796 0.77469969 7.7393504e-39
0.49454507 -1.5646795 0.77469969 7.6467918e-39
0.50471735 -1.5651381 0.77469969 7.7389875e-39
0.51488906 -1.5646795 0.77469975 7.8315446e-39
0.52505356 -1.5642207 0.77469975 7.9237389e-39
0.53522795 -1.5646793 0.77469975 7.9237403e-39
0.54461628 -1.5646795 0.77469975 7.9237417e-39
0.55480021 -1.5651381 0.77469981 8.0159373e-39
0.5649603 -1.5646793 0.77469987 8.0159373e-39
0.57511318 -1.5642205 0.77469987 7.9237403e-39
0.58529919 -1.5646793 0.77469993 7.8315446e-39
0.59468758 -1.5646791 0.77469987 7.831546e-39
0.60488307 -1.5651377 0.77469987 7.8319076e-39
0.61503148 -1.5646791 0.77469993 7.9237417e-39
0.62517273 -1.5642204 0.77470005 7.9237445e-39
0.63537043 -1.564679 0.77469993 7.8311817e-39
0.6447587 -1.5646788 0.77469999 7.9233787e-39
0.65496582 -1.5651376 0.77470005 8.0155772e-39
0.66510272 -1.5646788 0.77469999 7.9233787e-39
0.67523235 -1.5642202 0.77470005 7.8311831e-39
0.68544155 -1.5646788 0.77469999 7.8311831e-39
0.69482994 -1.5646788 0.77470011 7.8311845e-39
0.70421833 -1.5646787 0.77470011 7.9233801e-39
0.71443921 -1.5651375 0.77470011 8.0152114e-39
0.72529185 -1.5642201 0.77470011 7.9233801e-39
0.73551273 -1.5646787 0.77470016 7.8311831e-39
0.74490112 -1.5646787 0.77470016 7.8319062e-39
0.75428945 -1.5646785 0.77470016 7.831546e-39
0.76452196 -1.5651373 0.77470016 7.7389875e-39
0.77535146 -1.5642198 0.77470016 7.8315446e-39
0.78558397 -1.5646785 0.77470016 7.9237431e-39
0.79497224 -1.5646785 0.77470016 7.8322677e-39
0.80436063 -1.5646785 0.77470022 7.9244633e-39
0.81460476 -1.5651371 0.77470022 8.0163002e-39
0.82541096 -1.5642197 0.77470022 8.0159387e-39
0.83565503 -1.5646785 0.77470022 8.0159373e-39
0.84504342 -1.5646785 0.77470022 7.8319048e-39
0.85443181 -1.5646783 0.77470034 7.9237417e-39
0.8646875 -1.565137 0.77470028 7.9241032e-39
0.87547052 -1.5642196 0.77470028 7.9237417e-39
0.88572621 -1.5646783 0.7747004 8.0155744e-39
0.8951146 -1.5646783 0.7747004 8.0159359e-39
0.90450293 -1.5646782 0.7747004 8.0159373e-39
0.91232657 -1.5646781 0.7747004 7.9241018e-39
0.1045282 -1.55509 0.77469903 8.0159345e-39
0.11387102 -1.55509 0.77469903 7.8315432e-39
0.12477095 -1.55509 0.77469909 7.8308244e-39
0.13567092 -1.55509 0.77469903 7.9237431e-39
0.14501373 -1.55509 0.77469903 7.9244633e-39
0.15435654 -1.55509 0.77469903 7.9241032e-39
0.16525649 -1.55509 0.77469909 7.9241032e-39
0.17615645 -1.5550898 0.77469903 8.0163002e-39
0.18549925 -1.5550898 0.77469903 7.9248263e-39
0.19484204 -1.5550896 0.77469915 8.0166632e-39
0.20418485 -1.5550896 0.77469915 8.1081329e-39
0.24622749 -1.5550895 0.77469927 8.0159373e-39
0.25401318 -1.5550896 0.77469921 7.9237403e-39
0.26491311 -1.5550895 0.77469927 7.9233801e-39
0.27581304 -1.5550895 0.77469927 7.9233815e-39
0.28515586 -1.5550895 0.77469927 7.9237417e-39
0.29761297 -1.5550894 0.77469933 7.9241032e-39
0.30384147 -1.5550894 0.77469939 7.9244633e-39
0.31474143 -1.5550894 0.77469933 7.9241046e-39
0.32564136 -1.5550894 0.77469939 7.9241046e-39
0.33498415 -1.5550894 0.77469939 7.924106e-39
0.34432697 -1.5550894 0.77469939 7.924106e-39
0.35522693 -1.5550892 0.77469939 7.8322705e-39
0.36612687 -1.5550891 0.77469945 7.7400721e-39
0.37546965 -1.5550891 0.77469945 7.7397133e-39
0.38481244 -1.5550891 0.77469945 7.7397119e-39
0.39415526 -1.5550891 0.77469945 7.739349e-39
0.4050552 -1.5550891 0.77469951 7.831546e-39
0.41595516 -1.5550891 0.77469951 7.7400721e-39
0.42529789 -1.555089 0.77469951 7.6471534e-39
0.43464074 -1.555089 0.77469951 7.6464317e-39
0.44398355 -1.555089 0.77469963 7.8311831e-39
0.45488346 -1.555089 0.77469957 7.8311831e-39
0.46578339 -1.555089 0.77469963 7.8311803e-39
0.47512618 -1.5550889 0.77469963 7.8311845e-39
0.48446903 -1.5550889 0.77469963 7.8315474e-39
0.49381182 -1.5550886 0.77469969 7.739349e-39
0.50471169 -1.5550888 0.77469969 7.6467904e-39
0.51561165 -1.5550886 0.77469969 7.8315432e-39
0.5249545 -1.5550886 0.77469969 7.9237389e-39
0.53429723 -1.5550886 0.77469975 7.8315446e-39
0.54519725 -1.5550886 0.77469975 7.9233801e-39
0.55609721 -1.5550886 0.77469975 8.0155744e-39
0.56543994 -1.5550885 0.77469975 8.0159345e-39
0.57478267 -1.5550885 0.77469987 7.8315432e-39
0.58412552 -1.5550885 0.77469987 7.9233801e-39
0.59502542 -1.5550884 0.77469987 7.8311831e-39
0.60592538 -1.5550885 0.77469987 7.831546e-39
0.61526817 -1.5550884 0.77469987 7.9241032e-39
0.6246109 -1.5550884 0.77469993 7.9244661e-39
0.63395375 -1.5550884 0.77469993 7.8311831e-39
0.64485365 -1.5550883 0.77469993 7.9233787e-39
0.65575361 -1.5550884 0.77469993 8.0162988e-39
0.6650964 -1.5550884 0.77469993 7.9241004e-39
0.67443919 -1.5550884 0.77469999 7.831546e-39
0.68378204 -1.5550884 0.77469999 7.9237431e-39
0.69468188 -1.5550883 0.77470005 7.9237417e-39
0.70558184 -1.5550884 0.77469999 7.9237389e-39
0.71492457 -1.5550882 0.77470011 8.1074084e-39
0.72426742 -1.5550882 0.77470011 7.9237389e-39
0.73516726 -1.5550882 0.77470011 7.8319048e-39
0.74606723 -1.555088 0.77470016 7.9241032e-39
0.75541002 -1.5550882 0.77470011 7.9241032e-39
0.76475286 -1.555088 0.77470016 7.8315474e-39
0.77409559 -1.555088 0.77470016 7.831546e-39
0.7849955 -1.555088 0.77470016 7.9237417e-39
0.7958954 -1.5550879 0.77470022 8.0159359e-39
0.80523825 -1.5550879 0.77470022 8.0163002e-39
0.8145811 -1.5550879 0.77470022 8.1084945e-39
0.82392377 -1.5550877 0.77470034 8.1081343e-39
0.83482373 -1.5550878 0.77470028 8.0162988e-39
0.84572363 -1.5550877 0.77470034 7.9237403e-39
0.85506648 -1.5550877 0.77470034 7.8319076e-39
0.86440921 -1.5550877 0.77470034 7.9241032e-39
0.87530917 -1.5550877 0.77470034 7.9237403e-39
0.88620901 -1.5550877 0.77470034 7.9241004e-39
0.89555186 -1.5550876 0.7747004 8.0162974e-39
0.90489459 -1.5550876 0.7747004 8.0162988e-39
0.91268027 -1.5550876 0.7747004 7.9241018e-39
0.10413011 -1.5456023 0.77469897 7.9237417e-39
0.11497748 -1.5456022 0.77469897 7.7393504e-39
0.12582485 -1.5456022 0.77469897 7.8315446e-39
0.1351226 -1.545602 0.77469903 7.9237431e-39
0.14442034 -1.5456022 0.77469903 7.8322691e-39
0.15457188 -1.5451521 0.77469909 7.8322691e-39
0.16526127 -1.5460519 0.77469915 7.924106e-39
0.17541282 -1.545602 0.77469915 7.924106e-39
0.18471055 -1.545602 0.77469915 7.9248277e-39
0.19485284 -1.5451519 0.77469915 7.9248277e-39
0.20345189 -1.5471764 0.77469909 8.0163016e-39
0.24669302 -1.5456017 0.77469921 7.9241032e-39
0.25516009 -1.5460516 0.77469921 7.9237431e-39
0.26568237 -1.5487508 0.77469927 7.831546e-39
0.27499509 -1.5487508 0.77469927 7.8315446e-39
0.29783306 -1.5456016 0.77469933 7.8319076e-39
0.30558118 -1.5456017 0.77469927 7.7397119e-39
0.31487891 -1.5456015 0.77469939 7.7397119e-39
0.32499129 -1.5451518 0.77469927 7.8319076e-39
0.33502153 -1.5456015 0.77469939 7.8322677e-39
0.34505889 -1.5460514 0.77469933 7.924106e-39
0.35516909 -1.5456015 0.77469939 7.9244647e-39
0.36446688 -1.5456015 0.77469939 7.9244647e-39
0.37456781 -1.5451516 0.77469939 7.9241046e-39
0.3853583 -1.5460513 0.77469951 7.8319076e-39
0.39545929 -1.5456014 0.77469945 7.7397119e-39
0.40475705 -1.5456014 0.77469945 7.7393504e-39
0.41484872 -1.5451514 0.77469957 7.8315474e-39
0.42489967 -1.5456012 0.77469951 7.8319104e-39
0.43495765 -1.546051 0.77469957 7.6475163e-39
0.44504723 -1.545601 0.77469963 7.7389903e-39
0.45512968 -1.5451511 0.77469963 7.739349e-39
0.46518978 -1.545601 0.77469963 7.8315446e-39
0.47525713 -1.5460509 0.77469963 7.9233801e-39
0.48533738 -1.545601 0.77469963 7.9233815e-39
0.49463511 -1.5456009 0.77469969 7.8315446e-39
0.5047062 -1.545151 0.77469969 7.8308216e-39
0.51477772 -1.5456009 0.77469969 7.8311817e-39
0.52485639 -1.5460508 0.77469969 7.9233801e-39
0.53492528 -1.5456009 0.77469969 7.9233801e-39
0.54498708 -1.545151 0.77469969 7.9237417e-39
0.5550679 -1.5456009 0.77469975 7.831546e-39
0.5651558 -1.5460508 0.77469975 7.8319048e-39
0.57521546 -1.5456009 0.77469975 7.8311831e-39
0.58526802 -1.545151 0.77469975 7.8315446e-39
0.59535807 -1.5456008 0.77469987 7.830823e-39
0.60465574 -1.5456008 0.77469987 7.8315446e-39
0.61475503 -1.5460507 0.77469981 7.8319062e-39
0.62480336 -1.5456008 0.77469993 7.9241046e-39
0.63484448 -1.5451509 0.77469987 7.8315446e-39
0.64494592 -1.5456008 0.77469987 7.8315432e-39
0.65505445 -1.5460504 0.77470005 8.0159373e-39
0.66509348 -1.5456005 0.77469993 7.9237403e-39
0.6751253 -1.5451505 0.77470005 7.9237403e-39
0.68523604 -1.5456004 0.77470011 7.9237431e-39
0.69453377 -1.5456004 0.77470011 7.9237417e-39
0.70465374 -1.5460502 0.77470011 7.9233787e-39
0.7154063 -1.5451505 0.77470011 7.9237389e-39
0.72552615 -1.5456003 0.77470011 8.0155758e-39
0.73482388 -1.5456003 0.77470011 8.0155758e-39
0.74495316 -1.5460501 0.77470011 8.0159373e-39
0.75568712 -1.5451504 0.77470011 7.9241032e-39
0.76581639 -1.5456001 0.77470016 7.9237403e-39
0.77511406 -1.5456001 0.77470016 7.9237431e-39
0.78441167 -1.5456001 0.77470016 7.9241032e-39
0.79455233 -1.54605 0.77470016 8.0155772e-39
0.80526352 -1.54515 0.77470016 8.0162988e-39
0.81540418 -1.5455999 0.77470022 8.1084931e-39
0.82470185 -1.5455999 0.77470022 8.1081315e-39
0.83485174 -1.5460498 0.77470022 8.0159359e-39
0.8455444 -1.54515 0.77470022 7.9233815e-39
0.85569429 -1.5455999 0.77470022 7.9237417e-39
0.86499196 -1.5455999 0.77470022 7.9237417e-39
0.87428969 -1.5455999 0.77470034 7.9237403e-39
0.88513702 -1.5455999 0.77470028 7.9241018e-39
0.89598435 -1.5455998 0.77470034 7.9241018e-39
0.90528208 -1.5455998 0.7747004 7.9237417e-39
0.91148055 -1.5455997 0.7747004 7.831546e-39
0.10527758 -1.5361954 0.77469891 7.8315446e-39
0.11607283 -1.5361954 0.77469891 7.7389875e-39
0.12532589 -1.5361953 0.77469897 7.8311831e-39
0.13457894 -1.5361953 0.77469897 7.9237403e-39
0.14383201 -1.5361953 0.77469897 7.8322677e-39
0.15000072 -1.5361953 0.77469897 7.8322691e-39
0.1777599 -1.5361952 0.77469903 8.0166604e-39
0.18392861 -1.5361952 0.77469903 8.016666e-39
0.19472384 -1.5361952 0.77469909 8.0166618e-39
0.20243473 -1.5361952 0.77469909 8.0166632e-39
0.29650748 -1.5361948 0.77469933 7.8322733e-39
0.30421835 -1.5361948 0.77469939 7.6478778e-39
0.31501359 -1.5361948 0.77469933 7.5553193e-39
0.32580882 -1.5361948 0.77469939 7.6471548e-39
0.33506188 -1.5361947 0.77469939 7.7393518e-39
0.34431493 -1.5361947 0.77469939 7.831909e-39
0.35511017 -1.5361947 0.77469939 7.9241046e-39
0.3659054 -1.5361944 0.77469945 7.9241046e-39
0.37515843 -1.5361944 0.77469945 7.9244647e-39
0.38441148 -1.5361944 0.77469945 7.8322705e-39
0.39520672 -1.5361944 0.77469951 7.7400735e-39
0.40600196 -1.5361944 0.77469945 7.7393518e-39
0.41525498 -1.5361944 0.77469951 7.739349e-39
0.42450809 -1.5361944 0.77469951 7.831909e-39
0.43530327 -1.5361943 0.77469951 7.7397119e-39
0.44609848 -1.5361943 0.77469951 7.7389903e-39
0.45535159 -1.5361943 0.77469951 7.8315446e-39
0.46460462 -1.5361943 0.77469951 7.9237403e-39
0.47385764 -1.5361943 0.77469951 7.9237403e-39
0.48465291 -1.5361943 0.77469957 7.9237403e-39
0.49544811 -1.5361943 0.77469963 7.9237403e-39
0.50470114 -1.5361943 0.77469963 7.8315446e-39
0.51395422 -1.5361942 0.77469963 7.830823e-39
0.5247494 -1.5361942 0.77469963 7.8315418e-39
0.53554463 -1.5361942 0.77469969 7.9233801e-39
0.54479772 -1.5361942 0.77469969 7.9237403e-39
0.55405074 -1.5361942 0.77469969 7.8315432e-39
0.56484598 -1.536194 0.77469969 7.8315432e-39
0.57564121 -1.536194 0.77469975 7.7389861e-39
0.58489424 -1.5361938 0.77469975 7.8311831e-39
0.59414726 -1.5361938 0.77469987 7.8311817e-39
0.6049425 -1.5361938 0.77469981 7.8311817e-39
0.61573774 -1.5361938 0.77469987 7.8315432e-39
0.62499076 -1.5361938 0.77469987 7.9241046e-39
0.63424379 -1.5361937 0.77469987 7.831546e-39
0.64503902 -1.5361937 0.77469987 7.9233787e-39
0.65583426 -1.5361937 0.77469993 8.0159373e-39
0.66508728 -1.5361935 0.77469993 8.0159387e-39
0.67434031 -1.5361935 0.77469993 7.9237417e-39
0.68513554 -1.5361936 0.77469993 7.9237417e-39
0.69593072 -1.5361935 0.77469993 7.831546e-39
0.7051838 -1.5361935 0.77469993 7.8311831e-39
0.71443683 -1.5361935 0.77469999 7.9230172e-39
0.72523206 -1.5361935 0.77469999 7.9230172e-39
0.73602724 -1.5361935 0.77469999 7.9233801e-39
0.74528027 -1.5361935 0.77469999 8.0155744e-39
0.75453329 -1.5361935 0.77469999 8.0155758e-39
0.76532853 -1.5361935 0.77470011 7.8315446e-39
0.77612376 -1.5361934 0.77470011 7.9237417e-39
0.78537679 -1.5361934 0.77470016 7.9241018e-39
0.79462981 -1.5361933 0.77470016 8.0155758e-39
0.80388284 -1.5361933 0.77470016 8.0162974e-39
0.81467807 -1.5361933 0.77470016 8.0166576e-39
0.82547331 -1.5361933 0.77470016 8.1081315e-39
0.83472627 -1.5361933 0.77470022 8.0159359e-39
0.84397936 -1.5361933 0.77470016 7.9233801e-39
0.85477459 -1.5361931 0.77470022 7.9237417e-39
0.86556977 -1.5361933 0.77470022 7.9237403e-39
0.8748228 -1.536193 0.77470034 8.0155758e-39
0.88407582 -1.536193 0.77470034 8.0159359e-39
0.89487106 -1.5361929 0.77470028 7.9237417e-39
0.90566629 -1.5361929 0.77470034 7.9233815e-39
0.91183496 -1.5361929 0.77470034 7.8315446e-39
0.10487971 -1.5268886 0.77469885 7.7397091e-39
0.11562338 -1.5268885 0.77469891 7.8311831e-39
0.12483224 -1.5268885 0.77469891 7.9233815e-39
0.1348912 -1.5264473 0.77469885 7.9241018e-39
0.14546941 -1.5273298 0.77469891 7.9237431e-39
0.29602832 -1.5262702 0.77469921 7.8322705e-39
0.30512577 -1.5273292 0.77469921 7.7400763e-39
0.31514847 -1.5268879 0.77469927 7.6478778e-39
0.3243573 -1.5268878 0.77469927 7.6475191e-39
0.33437088 -1.5264465 0.77469927 7.5556822e-39
0.3450399 -1.5273292 0.77469927 7.6475177e-39
0.35505345 -1.5268878 0.77469927 7.7397119e-39
0.36506006 -1.5264465 0.77469933 7.8319076e-39
0.37500349 -1.5268878 0.77469939 7.9237417e-39
0.38495398 -1.5273291 0.77469933 7.8322677e-39
0.3949585 -1.5268875 0.77469939 7.8322691e-39
0.40495592 -1.5264462 0.77469951 7.831909e-39
0.4149085 -1.5268875 0.77469951 7.7397119e-39
0.42486808 -1.5273288 0.77469951 7.9237417e-39
0.43486345 -1.5268875 0.77469945 7.8315474e-39
0.44485185 -1.5264462 0.77469951 7.8315446e-39
0.45481348 -1.5268875 0.77469963 7.831546e-39
0.46478215 -1.5273288 0.77469963 7.8319048e-39
0.4747684 -1.5268875 0.77469963 7.9233801e-39
0.48474774 -1.5264461 0.77469963 7.9233801e-39
0.49471846 -1.5268873 0.77469963 7.9237417e-39
0.50469619 -1.5273286 0.77469969 7.9241018e-39
0.51467341 -1.5268873 0.77469969 7.8315432e-39
0.5246436 -1.526446 0.77469969 7.8311817e-39
0.53462344 -1.5268871 0.77469969 7.831546e-39
0.5446102 -1.5273285 0.77469969 7.9237403e-39
0.55533278 -1.5264457 0.77469969 7.8311845e-39
0.5653196 -1.5268873 0.77469969 7.8311831e-39
0.57452846 -1.5268871 0.77469975 7.8311831e-39
0.58452427 -1.5273284 0.77469975 7.8315446e-39
0.59522867 -1.5264457 0.77469975 7.8311831e-39
0.60522455 -1.5268869 0.77469975 7.8311831e-39
0.6152274 -1.5273284 0.77469981 7.739349e-39
0.62517947 -1.5268871 0.77469975 7.9237431e-39
0.63512456 -1.5264456 0.77469981 7.9241032e-39
0.6451295 -1.5268871 0.77469987 7.9241032e-39
0.65514147 -1.5273283 0.77469987 8.0159373e-39
0.66508442 -1.5268869 0.77469993 8.0159373e-39
0.67502034 -1.5264456 0.77469987 7.9237403e-39
0.68503445 -1.5268869 0.77469999 7.9233801e-39
0.69505548 -1.5273281 0.77470005 7.9241004e-39
0.70498925 -1.5268868 0.77469999 7.8315446e-39
0.71491623 -1.5264454 0.77470005 7.7389875e-39
0.72493935 -1.5268866 0.77469999 7.8308216e-39
0.7349695 -1.5273279 0.77470011 7.9230172e-39
0.74560541 -1.5264454 0.77470005 8.0152142e-39
0.7556355 -1.5268866 0.77469999 7.9233773e-39
0.76484436 -1.5268866 0.77470011 7.831546e-39
0.77488357 -1.5273278 0.77470011 7.8315446e-39
0.78550118 -1.5264452 0.77470016 7.8319062e-39
0.79554039 -1.5268863 0.77470016 7.831546e-39
0.80474925 -1.5268865 0.77470016 7.9241032e-39
0.81479746 -1.5273277 0.77470016 8.10777e-39
0.82539707 -1.526445 0.77470016 8.10777e-39
0.83544534 -1.5268863 0.77470016 8.0155744e-39
0.84465414 -1.5268863 0.77470016 7.8315446e-39
0.85471153 -1.5273274 0.77470016 7.9237389e-39
0.86529291 -1.5264448 0.77470022 8.0155758e-39
0.87535024 -1.5268861 0.77470022 8.0159373e-39
0.88455909 -1.5268861 0.77470022 7.9241018e-39
0.89462554 -1.5273275 0.77470022 7.9237403e-39
0.90518874 -1.5264448 0.77470022 7.8311831e-39
0.91218555 -1.5268862 0.77470028 7.9233773e-39
0.1058799 -1.5146103 0.77469879 7.7389875e-39
0.11503043 -1.5146104 0.77469879 7.8311845e-39
0.12418095 -1.5146104 0.77469891 7.9237417e-39
0.13485658 -1.5146103 0.77469885 7.9244647e-39
0.14553219 -1.5146102 0.77469891 7.9237417e-39
0.28773448 -1.5135931 0.77469921 7.8315488e-39
0.29499084 -1.5146098 0.77469921 7.7397133e-39
0.30494761 -1.5141739 0.77469921 7.7400749e-39
0.31553575 -1.5150455 0.77469921 7.7397133e-39
0.32549259 -1.5146097 0.77469921 7.7397133e-39
0.33464313 -1.5146097 0.77469921 7.6475163e-39
0.34459093 -1.5141737 0.77469927 7.6471576e-39
0.35519701 -1.5150453 0.77469927 7.5553207e-39
0.36514482 -1.5146097 0.77469927 7.6475149e-39
0.3750858 -1.5141739 0.77469927 7.7397119e-39
0.38496855 -1.5146095 0.77469939 7.9237431e-39
0.39485821 -1.5150452 0.77469933 7.8322691e-39
0.40479708 -1.5146095 0.77469945 7.8322705e-39
0.41472909 -1.5141736 0.77469951 7.831909e-39
0.42536688 -1.515045 0.77469939 7.831546e-39
0.43529883 -1.5146095 0.77469945 7.831546e-39
0.44522387 -1.5141736 0.77469951 7.7393504e-39
0.45512256 -1.5146092 0.77469945 7.6471534e-39
0.46502811 -1.5150449 0.77469951 7.6471506e-39
0.47495106 -1.5146092 0.77469951 7.8311845e-39
0.48486724 -1.5141734 0.77469957 7.9233801e-39
0.49477479 -1.514609 0.77469963 7.9233787e-39
0.50468928 -1.5150449 0.77469963 7.8315432e-39
0.51536196 -1.5141734 0.77469963 7.9233801e-39
0.5252766 -1.514609 0.77469969 7.8315432e-39
0.53519791 -1.5150449 0.77469969 7.831546e-39
0.54510504 -1.514609 0.77469969 7.831546e-39
0.55500531 -1.5141733 0.77469969 7.8315432e-39
0.56492877 -1.514609 0.77469969 7.8311817e-39
0.57485914 -1.5150448 0.77469969 7.8311831e-39
0.58550012 -1.5141732 0.77469969 7.9233801e-39
0.59543043 -1.5146089 0.77469969 7.8311845e-39
0.60458094 -1.5146089 0.77469975 7.831546e-39
0.61452037 -1.5150446 0.77469975 7.8311859e-39
0.62514335 -1.5141729 0.77469975 7.9237431e-39
0.63508272 -1.5146087 0.77469975 7.924106e-39
0.64502895 -1.5150445 0.77469981 8.0159387e-39
0.65563822 -1.5141729 0.77469981 8.0159373e-39
0.66558439 -1.5146087 0.77469987 7.9244619e-39
0.67473489 -1.5146087 0.77469987 7.8319062e-39
0.68469012 -1.5150443 0.77469987 7.8311831e-39
0.69528145 -1.5141728 0.77469987 7.8319048e-39
0.70523661 -1.5146085 0.77469993 7.9237431e-39
0.71438712 -1.5146085 0.77469999 7.7397119e-39
0.72435135 -1.5150441 0.77469987 7.7389889e-39
0.73492467 -1.5141727 0.77470005 7.8311831e-39
0.74488878 -1.5146083 0.77469999 7.9233787e-39
0.75485992 -1.515044 0.77470005 7.9233773e-39
0.76541948 -1.5141727 0.77470005 7.9233773e-39
0.77539045 -1.5146084 0.77469999 7.8319048e-39
0.78454095 -1.5146083 0.77470011 7.8315474e-39
0.79452103 -1.515044 0.77470011 7.7393504e-39
0.80506265 -1.5141724 0.77470011 7.8315446e-39
0.81504273 -1.5146083 0.77470011 8.0155758e-39
0.82419324 -1.514608 0.77470016 8.1074084e-39
0.83486879 -1.5146081 0.77470016 8.015573e-39
0.84554434 -1.514608 0.77470016 7.9237403e-39
0.8546949 -1.514608 0.77470016 7.9244633e-39
0.86469078 -1.5150439 0.77470016 8.0162974e-39
0.87520069 -1.5141723 0.77470016 7.9237389e-39
0.88519663 -1.514608 0.77470022 7.8311803e-39
0.89434713 -1.514608 0.77470022 7.9226557e-39
0.90502274 -1.5146078 0.77470022 7.9233759e-39
0.91264808 -1.5146079 0.77470028 8.1074084e-39
0.10548314 -1.5054984 0.77469891 7.6467904e-39
0.1145904 -1.5054984 0.77469891 7.7393476e-39
0.12521553 -1.5054984 0.77469891 7.8322677e-39
0.13584064 -1.5054984 0.77469891 7.9241046e-39
